ncols        203
nrows        90
xllcorner    -75.2423492087
yllcorner    3.01598691916
cellsize     0.001605019476
NODATA_value -9999
-9999 -9999 -9999 452 451 453 452 439 417 409 412 423 411 428 427 413 415 416 412 415 409 425 426 415 413 431 421 421 420 421 413 416 416 414 411 406 409 411 416 413 408 417 418 423 428 432 454 447 456 475 466 479 488 483 472 478 492 484 476 470 475 479 470 481 472 477 476 467 476 486 485 476 480 489 494 493 487 472 473 478 490 503 505 502 506 512 493 491 494 497 503 501 501 503 513 516 523 529 539 548 552 566 564 572 585 598 601 581 580 605 589 586 584 584 591 611 638 650 669 644 -9999 -9999 754 752 751 686 689 747 694 701 717 731 740 750 741 735 740 753 779 790 779 795 796 804 811 825 870 902 934 963 983 992 1015 1060 1099 1135 1173 1202 1257 1350 1395 1430 1428 1418 1417 1448 1512 1562 1590 1599 1602 1613 -9999 -9999 -9999 -9999 -9999 -9999 -9999 -9999 -9999 -9999 -9999 -9999 -9999 -9999 -9999 -9999 -9999 -9999 -9999 -9999 1985 1958 2018 2102 2157 2222 -9999 -9999 -9999 -9999 -9999
-9999 -9999 -9999 445 449 450 452 426 425 411 415 434 412 417 422 421 420 420 409 412 410 429 434 420 419 430 423 428 428 431 418 418 417 414 414 407 407 412 411 410 415 417 418 420 426 430 451 467 460 480 482 483 487 474 472 471 497 480 482 461 467 469 466 470 473 473 471 467 475 483 480 479 480 486 488 488 477 471 471 483 501 504 495 500 503 512 497 494 491 497 500 500 505 509 508 512 516 524 536 554 563 576 577 572 585 601 608 591 587 604 601 591 600 593 589 594 613 630 663 637 648 712 737 724 742 676 686 747 674 675 696 713 721 731 718 713 710 742 762 764 753 766 772 776 788 807 850 892 924 954 974 985 1012 1056 1097 1134 1157 1194 1234 1327 1384 1421 1394 1392 1394 1420 1486 1531 1552 1599 1602 1615 1637 1637 1663 1704 1696 1667 1732 1802 1844 1810 1755 1762 1826 -9999 -9999 1951 1954 2014 1972 1957 1944 1955 2036 2106 2137 2182 2188 -9999 -9999 -9999 -9999
-9999 -9999 -9999 437 439 449 450 441 437 418 410 431 418 415 417 422 424 420 420 409 418 436 462 420 431 445 428 432 443 439 423 432 460 436 411 410 414 411 409 413 410 419 427 431 441 447 456 454 459 477 504 499 479 466 460 487 483 471 462 463 458 457 467 473 473 463 460 475 476 472 475 473 476 483 496 482 471 468 476 483 497 497 494 488 496 501 501 505 499 497 498 502 506 505 518 529 528 530 524 537 567 580 595 603 594 614 639 619 611 603 618 610 609 616 602 600 610 633 649 633 636 665 681 718 732 658 654 661 660 661 675 684 687 686 703 704 711 713 720 727 739 743 755 764 772 775 831 881 906 928 935 977 995 1039 1078 1103 1125 1157 1201 1277 1356 1385 1363 1355 1368 1406 1431 1457 1486 1549 1625 1634 1631 1654 1692 1658 1614 1668 1745 1811 1796 1774 1733 1752 1804 1857 1884 1884 1883 1949 1891 1889 1902 1989 2028 2059 2113 2162 2197 2247 -9999 -9999 -9999
-9999 -9999 -9999 451 453 445 453 455 443 415 418 419 420 420 415 426 424 423 419 412 415 429 438 422 433 453 430 441 447 433 439 466 466 447 411 417 421 417 409 414 413 420 436 428 433 436 443 448 461 465 475 484 478 473 454 463 466 462 465 458 454 460 464 470 461 462 466 474 480 481 479 470 478 497 484 471 467 469 474 486 481 480 483 486 485 490 499 501 507 510 509 512 519 515 518 514 519 532 541 539 550 577 584 608 627 626 643 655 637 622 631 611 628 628 611 612 620 618 622 622 621 654 698 728 721 651 644 668 674 690 696 687 692 708 722 728 721 736 745 758 765 783 789 818 813 793 803 858 875 909 938 972 992 1028 1053 1072 1104 1142 1171 1217 1315 1361 1337 1320 1332 1357 1385 1388 1410 1474 1548 1620 1641 1666 1620 1579 1595 1671 1759 1740 1728 1731 1721 1723 1781 1813 1818 1838 1831 1865 1851 1864 1917 2010 2072 2122 2127 2173 2229 2277 2304 -9999 -9999
-9999 -9999 -9999 452 456 448 455 457 454 428 432 431 432 431 426 423 439 435 423 417 418 440 442 424 434 450 442 447 456 441 462 454 441 438 416 427 459 430 416 416 416 422 424 433 439 443 447 443 463 455 472 469 475 476 457 454 469 467 462 464 450 466 467 464 460 454 467 472 477 479 471 469 469 481 479 467 469 475 494 474 475 482 485 492 495 495 494 499 511 513 522 519 525 518 525 528 524 532 545 546 553 560 578 605 633 648 655 660 661 654 638 630 636 634 633 620 611 610 616 612 627 648 641 633 634 644 656 684 700 723 733 733 742 746 758 770 755 739 763 775 796 814 838 876 846 821 806 811 863 898 929 951 960 996 1010 1058 1080 1087 1129 1162 1240 1333 1318 1294 1288 1305 1359 1361 1365 1426 1492 1539 1575 1578 1535 1526 1585 1691 1688 1673 1681 1693 1703 1697 1730 1771 1747 1838 1823 1776 1818 1891 1895 1985 2063 2129 2144 2175 2221 2286 2311 2359 2395
-9999 -9999 -9999 457 455 452 460 458 453 423 427 455 455 452 442 428 441 441 430 418 421 462 440 427 430 439 455 457 448 438 445 441 426 422 420 434 466 427 419 415 418 423 440 447 456 463 451 438 444 450 478 471 465 468 451 445 456 458 450 453 448 465 470 474 452 465 474 469 479 506 489 467 470 482 482 466 470 477 473 474 480 485 493 492 499 507 503 499 501 510 526 524 527 525 523 535 528 526 534 545 557 565 572 590 603 625 654 664 664 665 660 635 619 616 611 619 607 608 611 612 617 623 633 644 647 668 686 712 735 744 762 792 781 783 806 806 783 767 758 794 814 837 861 884 887 860 835 840 826 848 857 877 903 941 975 1018 1034 1063 1089 1126 1170 1275 1284 1250 1245 1265 1326 1332 1338 1380 1420 1462 1489 1483 1465 1517 1626 1644 1617 1644 1654 1654 1683 1679 1707 1708 1679 1767 1785 1746 1811 1830 1815 1937 2032 2026 2087 2156 2195 2231 2265 2288 2374
-9999 -9999 -9999 457 456 458 458 460 428 435 428 451 463 450 433 442 449 440 434 420 430 435 440 439 437 453 455 452 438 448 438 425 423 418 437 449 478 459 423 414 423 426 432 437 460 469 466 434 453 471 483 466 478 474 450 443 444 440 445 445 449 458 465 465 451 473 473 491 489 478 470 461 463 475 463 465 466 470 472 484 496 500 500 503 496 498 510 512 507 510 515 527 535 537 537 541 532 537 535 546 560 566 567 577 593 608 619 632 664 668 646 626 612 607 602 606 596 603 609 614 619 627 663 674 679 702 733 754 767 776 815 838 821 821 835 825 820 789 771 804 836 866 889 908 913 881 874 889 885 863 894 901 901 898 940 974 1013 1037 1063 1086 1137 1194 1267 1276 1282 1281 1295 1302 1304 1324 1342 1393 1395 1398 1450 1552 1577 1579 1579 1606 1605 1637 1679 1644 1668 1670 1640 1670 1684 1726 1747 1767 1807 1905 1934 1932 2035 2063 2060 2161 2184 2290 2365
-9999 -9999 -9999 458 462 458 459 446 431 435 444 450 457 445 445 449 455 453 445 422 427 437 448 446 449 448 444 440 435 423 421 419 421 423 436 444 442 428 420 420 415 421 428 448 474 464 446 439 471 461 473 454 478 467 457 444 439 438 441 443 440 445 449 448 445 449 464 478 476 465 456 460 468 470 464 461 464 477 480 485 488 491 495 510 512 509 514 524 525 522 536 538 542 566 569 570 565 573 554 562 555 557 561 567 580 581 586 608 620 665 655 623 596 595 599 597 598 602 609 609 625 654 677 702 706 730 763 795 803 820 851 870 870 857 869 861 835 807 784 812 846 881 917 939 952 915 911 915 924 905 919 942 946 959 979 981 1011 1050 1079 1109 1171 1307 1326 1309 1306 1337 1354 1349 1348 1382 1360 1345 1354 1364 1419 1497 1503 1522 1554 1567 1589 1618 1659 1632 1615 1644 1681 1694 1732 1790 1791 1804 1788 1836 1860 1928 1983 1947 2008 2141 2229 2308 2362
-9999 -9999 -9999 459 459 462 462 452 433 441 461 458 456 444 447 451 445 442 433 429 426 433 438 449 454 440 430 424 425 426 429 428 424 427 446 455 423 417 440 417 413 414 420 430 459 446 427 434 451 456 474 452 469 478 445 435 442 442 440 441 442 445 444 443 445 448 451 453 450 451 457 466 460 471 462 469 468 474 479 482 482 487 495 501 508 514 504 508 529 562 570 569 571 572 574 576 576 576 577 547 549 558 562 559 570 573 569 584 607 610 624 611 602 587 587 584 598 601 603 619 642 664 692 723 728 750 787 819 849 874 880 902 894 902 872 859 843 826 796 834 865 897 932 964 973 957 953 939 945 936 937 940 958 973 1000 1034 1058 1082 1122 1164 1255 1321 1348 1345 1344 1379 1394 1404 1441 1440 1411 1389 1406 1439 1406 1416 1454 1490 1509 1548 1568 1627 1636 1586 1599 1649 1720 1774 1828 1843 1872 1904 1897 1856 1833 1873 1915 1953 2052 2130 2237 2322 2343
-9999 -9999 -9999 -9999 -9999 -9999 -9999 447 445 437 443 452 462 445 455 454 450 445 447 436 433 443 444 446 455 460 442 427 422 432 431 434 451 448 460 467 433 429 442 418 413 416 418 423 430 428 422 434 439 466 459 449 467 466 442 440 441 440 441 440 443 445 442 444 449 449 454 453 449 451 455 456 455 459 465 467 464 468 475 478 478 484 488 495 497 496 503 527 527 546 565 567 571 570 573 574 574 572 550 541 551 560 552 553 558 567 560 569 574 588 602 588 585 582 582 586 596 607 620 619 636 682 699 731 748 766 808 837 897 896 898 907 922 921 884 867 858 844 813 847 890 920 946 982 1004 1008 990 974 966 957 955 964 973 1007 1033 1068 1096 1127 1161 1217 1312 1354 1393 1402 1411 1439 1446 1454 1492 1458 1443 1427 1456 1515 1457 1417 1419 1439 1499 1558 1592 1631 1586 1605 1648 1664 1699 1740 1764 1796 1846 1963 1999 1953 1937 1890 1907 2013 2040 2161 2229 2303 2328
-9999 -9999 -9999 -9999 -9999 -9999 -9999 -9999 445 445 451 457 465 457 457 467 470 460 445 443 429 448 447 455 457 460 441 430 430 432 447 455 473 472 469 468 432 427 433 415 418 417 417 419 422 420 423 430 436 461 438 470 479 447 437 434 439 437 444 444 449 450 451 452 454 450 449 447 447 451 468 464 457 464 464 468 466 476 474 480 484 483 488 492 507 519 515 551 563 564 567 570 569 569 571 566 560 546 538 538 548 556 543 545 549 557 558 560 566 579 585 582 582 577 582 595 612 621 624 651 659 686 728 742 759 795 824 863 900 910 912 916 935 946 904 900 878 879 834 851 899 940 981 1011 1038 1050 1046 1022 1002 1006 996 995 1011 1049 1071 1089 1119 1144 1213 1309 1334 1355 1396 1445 1466 1509 1502 1550 1528 1495 1465 1478 1506 1531 1467 1450 1433 1450 1472 1489 1509 1538 1565 1630 1661 1678 1711 1773 1800 1841 1825 1934 1976 2017 2032 1985 1974 1978 2081 2146 2248 2320 2284
-9999 -9999 -9999 -9999 -9999 -9999 -9999 -9999 -9999 471 458 466 473 468 481 472 456 446 439 438 432 445 456 460 458 449 443 429 430 430 445 473 474 469 472 470 446 438 437 429 415 420 416 420 422 421 420 424 430 434 460 477 460 436 437 436 444 448 446 449 449 451 455 452 456 449 455 449 450 464 476 478 462 462 470 471 474 477 478 479 480 488 495 514 531 551 557 561 563 565 566 563 566 566 547 543 532 530 531 533 535 538 535 537 542 545 559 566 562 564 565 572 581 580 587 600 607 615 648 663 681 707 739 766 772 793 828 861 887 906 918 935 955 948 932 933 926 895 872 864 895 936 991 1023 1051 1081 1090 1054 1038 1049 1051 1047 1059 1073 1089 1101 1135 1192 1305 1352 1362 1370 1408 1468 1502 1591 1600 1610 1575 1524 1492 1530 1580 1549 1488 1460 1487 1512 1521 1532 1540 1535 1571 1600 1622 1655 1739 1738 1791 1818 1899 1886 1906 1940 1958 2004 2063 2029 2069 2178 2249 2326 2314
-9999 -9999 -9999 -9999 -9999 -9999 -9999 -9999 -9999 -9999 -9999 -9999 -9999 -9999 -9999 457 451 445 438 437 436 445 453 455 447 439 437 434 428 435 448 476 478 479 476 462 445 437 444 466 429 426 427 439 424 424 422 423 436 449 468 471 460 435 438 439 446 446 456 471 467 460 459 467 455 457 453 456 458 464 474 478 469 500 522 493 506 496 497 504 499 501 523 544 555 556 556 559 561 564 561 558 554 535 527 522 525 527 528 526 529 534 532 537 539 542 546 564 562 565 564 571 584 589 590 588 593 624 662 679 695 716 746 783 793 818 837 875 905 924 937 962 967 969 972 963 951 929 924 889 896 943 992 1030 1055 1091 1102 1086 1075 1084 1100 1100 1107 1118 1140 1157 1219 1310 1322 1387 1408 1411 1448 1534 1564 1649 1673 1649 1595 1529 1540 1564 1626 1546 1485 1495 1538 1562 1556 1609 1629 1620 1596 1558 1592 1636 1676 1707 1720 1796 1871 1953 1968 1980 1998 2059 2108 2115 2150 2178 2243 2317 2328
-9999 -9999 -9999 -9999 -9999 -9999 -9999 -9999 -9999 -9999 -9999 -9999 -9999 -9999 -9999 -9999 450 450 442 445 446 446 453 473 455 459 438 434 433 439 439 470 482 478 475 456 435 439 466 480 458 435 440 467 439 428 424 423 442 445 436 430 436 430 431 440 445 448 452 463 481 483 477 474 456 458 455 460 462 463 469 475 481 497 530 528 541 543 543 546 545 548 550 552 554 553 553 556 559 553 549 545 529 519 520 526 524 525 526 525 531 535 540 544 547 544 551 562 560 565 564 577 589 590 595 591 602 635 657 686 707 722 745 774 789 812 842 870 901 931 963 965 969 981 1001 993 988 963 967 964 933 937 990 1036 1068 1105 1144 1125 1114 1128 1157 1138 1149 1167 1170 1194 1325 1346 1384 1414 1439 1459 1491 1556 1603 1667 1678 1656 1590 1566 1575 1645 1588 1539 1516 1553 1574 1616 1637 1649 1667 1663 1621 1579 1577 1591 1613 1664 1697 1762 1856 1953 1932 1914 1981 2097 2154 2186 2235 2227 2267 2279 -9999
-9999 -9999 -9999 -9999 -9999 -9999 -9999 -9999 -9999 -9999 -9999 -9999 -9999 -9999 -9999 -9999 -9999 452 452 447 449 459 466 467 472 444 429 432 436 440 441 468 478 475 476 451 437 449 462 467 447 445 457 465 454 433 428 427 422 426 431 427 423 434 438 445 446 447 453 463 484 488 484 471 458 461 462 463 458 464 474 478 482 510 513 505 536 533 539 543 545 548 549 548 553 554 549 548 550 544 530 522 514 519 516 517 519 524 526 527 538 553 547 559 569 597 550 558 559 567 579 573 593 608 605 607 604 639 664 697 713 732 753 781 792 810 842 881 899 928 953 963 969 988 1005 1011 1022 999 1002 1002 977 980 993 1030 1063 1094 1150 1158 1153 1170 1199 1205 1207 1217 1218 1337 1359 1407 1400 1434 1496 1531 1571 1596 1639 1705 1677 1638 1594 1612 1629 1670 1593 1581 1539 1574 1622 1658 1694 1704 1714 1680 1662 1648 1624 1595 1688 1756 1731 1739 1844 1863 1844 1854 1953 2057 2174 2243 2279 2299 2263 -9999 -9999
-9999 -9999 -9999 -9999 -9999 -9999 -9999 -9999 -9999 -9999 -9999 -9999 -9999 -9999 -9999 -9999 -9999 -9999 460 456 449 484 461 454 457 436 434 437 437 442 442 453 480 480 472 446 443 460 464 461 442 458 458 455 437 435 433 432 429 433 426 431 439 438 437 443 454 457 474 463 467 504 509 471 464 462 461 457 459 461 461 466 477 487 484 500 517 539 541 546 545 545 548 550 551 547 531 542 545 527 510 512 516 513 513 518 522 524 528 526 550 554 564 569 611 651 564 552 563 565 568 583 584 589 594 602 606 640 669 691 707 725 751 770 781 805 846 864 867 885 918 948 962 971 991 1009 1037 1030 1038 1037 1020 1022 1028 1049 1074 1110 1157 1182 1193 1206 1238 1233 1239 1262 1324 1360 1405 1429 1418 1424 1492 1565 1622 1673 1684 1676 1673 1656 1649 1668 1723 1641 1612 1612 1583 1589 1649 1688 1723 1754 1741 1721 1710 1672 1640 1613 1648 1759 1792 1757 1763 1789 1803 1854 1867 2029 2105 2181 2253 2249 -9999 -9999 -9999
-9999 -9999 -9999 -9999 -9999 -9999 -9999 -9999 -9999 -9999 -9999 -9999 -9999 -9999 -9999 -9999 -9999 -9999 -9999 463 457 471 461 449 444 437 435 441 439 442 444 448 480 477 468 450 444 458 468 463 454 459 466 458 435 451 438 440 433 433 431 433 448 451 443 444 451 462 468 464 466 472 487 502 471 465 464 455 462 460 462 467 478 479 481 499 502 508 538 542 543 543 542 543 539 533 524 530 535 509 506 510 511 509 513 522 521 516 518 533 548 553 567 577 612 645 573 562 568 562 565 575 591 589 614 636 627 639 659 680 695 722 742 763 778 807 837 834 847 882 907 930 954 949 989 1010 1012 1033 1040 1061 1060 1065 1071 1074 1104 1134 1171 1197 1234 1232 1267 1303 1319 1346 1348 1389 1430 1458 1452 1457 1481 1541 1612 1659 1677 1678 1680 1683 1711 1744 1730 1647 1646 1655 1619 1631 1681 1720 1735 1779 1787 1753 1732 1686 1663 1632 1682 1766 1854 1867 1832 1866 1921 1933 1937 2040 2079 2142 2239 -9999 -9999 -9999 -9999
-9999 -9999 -9999 -9999 -9999 -9999 -9999 -9999 -9999 -9999 -9999 -9999 -9999 -9999 -9999 -9999 -9999 -9999 -9999 -9999 -9999 462 490 476 444 438 438 446 444 444 448 448 476 488 479 460 443 460 476 493 463 481 473 456 442 450 449 457 460 437 440 432 441 459 455 453 451 453 454 456 458 484 515 497 488 480 473 465 458 461 463 466 472 503 514 500 512 509 536 535 531 530 527 527 531 524 512 505 504 503 503 512 518 514 515 519 515 515 528 536 549 554 563 572 573 592 580 583 570 569 576 575 602 607 615 631 636 632 643 670 690 715 740 763 778 800 821 822 836 887 896 919 933 949 977 978 986 1008 1023 1050 1067 1083 1093 1114 1134 1165 1195 1211 1265 1274 1383 1396 1389 1379 1381 1418 1457 1490 1517 1498 1487 1545 1609 1634 1642 1665 1701 1741 1772 1757 1696 1664 1670 1690 1646 1688 1710 1757 1770 1806 1805 1778 1742 1712 1668 1678 1694 1708 1814 1934 1934 1948 1999 1984 2026 2061 2145 2160 -9999 -9999 -9999 -9999 -9999
-9999 -9999 -9999 -9999 -9999 -9999 -9999 -9999 -9999 -9999 -9999 -9999 -9999 -9999 -9999 -9999 -9999 -9999 -9999 -9999 -9999 -9999 476 483 446 438 443 442 445 444 449 454 468 489 477 454 449 459 470 480 477 484 476 456 448 460 452 464 448 442 441 438 440 458 452 462 453 453 457 461 457 482 503 513 513 486 476 470 464 461 462 467 472 492 522 522 526 510 526 527 528 518 521 522 524 515 508 503 502 503 509 506 513 513 513 515 516 520 530 539 546 545 565 565 567 603 586 584 574 566 564 577 594 601 616 622 630 630 652 680 704 721 743 768 784 803 805 811 823 872 887 907 921 935 958 958 982 999 1015 1039 1060 1079 1100 1123 1154 1186 1207 1231 1281 1353 1405 1412 1408 1403 1405 1430 1479 1525 1526 1503 1492 1538 1590 1630 1643 1653 1703 1756 1797 1741 1688 1685 1688 1707 1666 1699 1733 1768 1779 1834 1826 1795 1751 1734 1679 1675 1736 1719 1809 1934 1977 1983 2029 2023 2051 2103 2160 2184 -9999 -9999 -9999 -9999 -9999
-9999 -9999 -9999 -9999 -9999 -9999 -9999 -9999 -9999 -9999 -9999 -9999 -9999 -9999 -9999 -9999 -9999 -9999 -9999 -9999 -9999 -9999 454 471 468 441 441 441 441 443 449 451 464 487 469 478 451 451 457 464 495 500 472 455 456 465 479 452 460 459 438 439 442 456 458 453 460 456 458 466 479 466 474 484 496 508 511 474 467 463 465 464 466 475 498 521 524 523 527 528 522 509 510 511 513 511 497 498 500 506 504 511 510 507 511 514 512 522 524 529 532 542 556 556 587 646 645 601 576 597 573 577 579 586 603 618 607 625 664 700 728 742 758 789 799 781 770 798 813 840 871 884 894 915 931 936 960 976 994 1012 1038 1061 1089 1112 1137 1174 1198 1234 1283 1352 1399 1432 1444 1438 1449 1457 1495 1553 1537 1528 1517 1543 1566 1595 1609 1651 1707 1779 1800 1741 1712 1725 1736 1714 1719 1722 1768 1781 1825 1873 1862 1819 1772 1745 1700 1684 1701 1771 1865 1946 2015 2059 2082 2054 2029 2085 2176 2235 -9999 -9999 -9999 -9999 -9999
-9999 -9999 -9999 -9999 -9999 -9999 -9999 -9999 -9999 -9999 -9999 -9999 -9999 -9999 -9999 -9999 -9999 -9999 -9999 -9999 -9999 -9999 -9999 460 469 445 437 441 446 444 444 450 459 482 485 469 461 453 483 492 497 511 465 474 474 480 466 463 464 452 439 442 446 461 458 459 468 459 459 500 478 468 503 490 504 515 507 480 473 467 468 470 466 467 482 519 523 523 525 514 507 500 506 509 510 507 499 499 498 499 504 502 504 509 527 532 535 534 532 541 551 549 553 573 596 627 695 646 614 589 594 583 580 584 593 590 606 631 662 702 736 762 788 816 817 776 743 765 794 807 853 865 872 888 906 916 926 952 976 988 1015 1044 1065 1098 1141 1179 1220 1233 1275 1301 1393 1429 1442 1473 1488 1499 1522 1575 1559 1554 1528 1557 1566 1592 1610 1654 1718 1731 1730 1737 1752 1777 1775 1751 1751 1750 1791 1817 1873 1900 1891 1841 1810 1782 1738 1730 1710 1761 1818 1903 1966 2077 2098 2103 2096 2091 2167 2270 -9999 -9999 -9999 -9999 -9999
-9999 -9999 -9999 -9999 -9999 -9999 -9999 -9999 -9999 -9999 -9999 -9999 -9999 -9999 -9999 -9999 -9999 -9999 -9999 -9999 -9999 -9999 -9999 -9999 465 450 443 447 445 447 446 454 462 472 482 487 470 456 468 487 493 497 494 501 495 515 473 483 462 451 442 444 450 459 467 479 474 483 470 516 506 493 489 508 498 511 496 480 476 482 470 465 464 462 471 482 489 488 482 487 490 491 500 505 490 491 493 497 495 497 499 502 509 520 528 534 537 538 538 542 563 564 567 567 585 621 685 711 643 613 618 627 588 585 588 590 595 631 674 718 755 770 794 798 765 751 715 744 763 798 829 823 847 856 878 879 904 934 955 972 1001 1022 1062 1094 1142 1178 1206 1227 1255 1291 1347 1425 1439 1465 1497 1528 1542 1603 1588 1562 1531 1539 1561 1602 1622 1662 1662 1661 1670 1689 1736 1797 1809 1785 1775 1795 1831 1869 1915 1927 1909 1853 1839 1816 1824 1739 1751 1845 1828 1847 1969 2108 2129 2143 2171 2167 2205 2268 -9999 -9999 -9999 -9999 -9999
-9999 -9999 -9999 -9999 -9999 -9999 -9999 -9999 -9999 -9999 -9999 -9999 -9999 -9999 -9999 -9999 -9999 -9999 -9999 -9999 -9999 -9999 -9999 -9999 461 465 465 450 448 450 446 450 470 489 499 492 485 468 471 470 484 490 494 499 505 505 490 472 475 462 445 447 450 452 465 472 507 512 489 512 503 508 479 503 505 515 508 503 494 497 473 471 468 467 473 471 474 476 480 481 485 482 483 488 495 493 501 492 495 497 509 514 520 525 530 532 534 536 542 544 553 570 574 584 607 626 668 742 673 633 612 633 611 615 610 608 616 609 617 720 736 721 757 736 711 692 695 718 756 777 767 776 805 815 849 872 895 908 937 955 985 1011 1045 1086 1114 1139 1169 1197 1232 1281 1317 1357 1400 1440 1471 1510 1543 1590 1610 1575 1537 1549 1570 1613 1618 1605 1589 1616 1637 1686 1736 1766 1817 1821 1834 1850 1887 1916 1942 1943 1921 1873 1861 1860 1837 1749 1746 1850 1907 1897 1992 2120 2176 2173 2228 2270 2289 2346 -9999 -9999 -9999 -9999 -9999
-9999 -9999 -9999 -9999 -9999 -9999 -9999 -9999 -9999 -9999 -9999 -9999 -9999 -9999 -9999 -9999 -9999 -9999 -9999 -9999 -9999 -9999 -9999 -9999 484 488 483 459 471 456 453 449 453 478 476 484 491 498 487 481 474 479 487 484 483 488 486 460 458 460 449 441 446 449 455 458 488 514 516 499 510 499 491 491 501 535 528 512 515 488 487 489 468 467 470 469 475 475 476 477 485 480 486 488 489 490 492 496 495 501 511 511 512 518 523 538 542 551 550 550 552 559 567 585 608 646 676 760 687 656 614 643 645 646 628 679 660 636 609 687 688 689 689 667 674 677 675 690 694 703 715 733 741 780 826 855 877 888 919 936 970 998 1033 1056 1090 1124 1147 1181 1210 1253 1274 1303 1317 1397 1438 1470 1521 1558 1593 1567 1543 1554 1577 1557 1535 1541 1548 1589 1635 1688 1752 1808 1840 1870 1882 1892 1951 1967 1981 1960 1936 1899 1855 1899 1856 1836 1786 1809 1958 1984 2035 2112 2177 2198 2233 2270 2334 -9999 -9999 -9999 -9999 -9999 -9999
-9999 -9999 -9999 -9999 -9999 -9999 -9999 -9999 -9999 -9999 -9999 -9999 -9999 -9999 -9999 -9999 -9999 -9999 -9999 -9999 -9999 -9999 -9999 -9999 -9999 -9999 487 483 469 478 458 456 455 458 465 480 489 506 496 504 492 501 498 490 481 468 466 461 454 454 451 458 455 447 449 451 472 502 502 508 513 507 507 509 500 528 546 532 511 504 492 500 493 485 484 473 471 475 474 477 481 495 485 487 490 494 496 498 507 505 503 507 514 528 544 549 558 581 586 565 560 565 583 597 622 660 699 773 696 651 631 666 678 691 664 696 673 696 656 631 638 658 676 697 720 706 693 687 686 681 698 722 742 767 805 820 858 873 892 912 946 984 1007 1019 1045 1084 1138 1158 1180 1219 1241 1269 1279 1296 1361 1442 1482 1507 1546 1552 1543 1541 1528 1468 1465 1486 1536 1587 1637 1695 1767 1849 1889 1919 1923 1950 1994 2015 2012 1961 1941 1901 1898 1938 1939 1936 1828 1814 1931 2036 2106 2194 2224 2248 2271 2309 2326 -9999 -9999 -9999 -9999 -9999 -9999
-9999 -9999 -9999 -9999 -9999 -9999 -9999 -9999 -9999 -9999 -9999 -9999 -9999 -9999 -9999 -9999 -9999 -9999 -9999 -9999 -9999 -9999 -9999 -9999 -9999 -9999 -9999 -9999 -9999 497 491 468 455 457 460 464 477 492 501 514 502 527 553 524 497 500 486 475 468 464 453 474 458 453 453 452 458 465 474 505 530 527 513 532 537 508 552 524 515 514 511 517 504 492 497 492 476 475 481 480 495 503 497 499 495 503 510 513 502 503 508 512 513 527 527 558 577 597 605 589 571 570 597 629 652 680 700 785 704 650 650 675 702 714 713 714 742 742 699 670 664 713 738 762 777 760 751 737 738 700 700 708 743 776 803 814 827 851 865 891 921 944 974 992 1037 1070 1111 1147 1173 1192 1214 1219 1225 1276 1305 1348 1441 1454 1504 1500 1486 1453 1421 1426 1427 1484 1524 1585 1656 1709 1783 1846 1911 1969 1977 2006 2044 2059 2016 1970 1951 1930 1908 1970 1949 1966 1879 1845 1883 1994 2076 2147 2187 2258 2304 2296 -9999 -9999 -9999 -9999 -9999 -9999 -9999
-9999 -9999 -9999 -9999 -9999 -9999 -9999 -9999 -9999 -9999 -9999 -9999 -9999 -9999 -9999 -9999 -9999 -9999 -9999 -9999 -9999 -9999 -9999 -9999 -9999 -9999 -9999 -9999 -9999 -9999 492 467 461 458 459 461 467 480 484 487 488 506 525 559 538 527 514 487 485 464 467 490 488 478 471 458 454 455 455 488 502 509 533 517 540 529 565 576 556 554 554 525 510 499 497 498 498 487 483 484 503 508 513 522 536 535 542 547 542 512 510 512 518 527 544 553 564 575 585 570 578 590 624 665 673 703 736 797 707 678 670 711 724 738 768 775 811 755 728 687 680 723 782 795 816 799 789 799 779 734 707 712 741 762 772 781 802 833 868 885 906 927 952 987 1030 1069 1100 1120 1139 1163 1182 1202 1217 1254 1297 1303 1346 1390 1438 1397 1358 1349 1377 1383 1403 1495 1573 1660 1707 1751 1837 1880 1908 1962 2028 2075 2087 2084 2027 1998 1991 1951 1918 1973 1977 1988 1948 1912 1879 1947 2005 2048 2060 2185 2299 -9999 -9999 -9999 -9999 -9999 -9999 -9999 -9999
-9999 -9999 -9999 -9999 -9999 -9999 -9999 -9999 -9999 -9999 -9999 -9999 -9999 -9999 -9999 -9999 -9999 -9999 -9999 -9999 -9999 -9999 -9999 -9999 -9999 -9999 -9999 -9999 -9999 -9999 -9999 492 465 460 461 463 468 485 488 476 478 487 504 516 540 562 552 506 473 466 468 490 520 499 491 518 493 482 460 490 515 522 508 517 513 518 559 602 607 598 595 546 521 508 507 500 493 500 493 484 492 488 491 496 502 507 539 549 552 534 513 512 518 519 526 543 551 554 554 563 589 586 632 688 694 713 747 791 703 690 702 725 752 763 784 840 846 778 735 706 706 756 810 859 863 831 829 832 811 788 719 712 728 754 772 781 811 838 871 891 910 932 961 998 1024 1055 1083 1093 1119 1132 1167 1209 1227 1258 1271 1294 1317 1338 1330 1331 1315 1327 1330 1370 1412 1521 1623 1710 1743 1815 1881 1921 1941 1970 2031 2112 2131 2099 2053 1995 1979 1936 1946 1960 1978 2049 2021 1989 1943 1900 1932 1983 2027 2160 2264 -9999 -9999 -9999 -9999 -9999 -9999 -9999 -9999
-9999 -9999 -9999 -9999 -9999 -9999 -9999 -9999 -9999 -9999 -9999 -9999 -9999 -9999 -9999 -9999 -9999 -9999 -9999 -9999 -9999 -9999 -9999 -9999 -9999 -9999 -9999 -9999 -9999 -9999 -9999 505 487 480 460 462 461 466 474 473 476 488 504 510 530 554 557 498 491 471 498 513 558 548 507 554 510 493 467 491 504 511 498 510 494 511 540 575 600 612 612 588 571 531 529 522 501 503 496 485 487 488 489 492 494 500 504 514 543 557 522 511 517 525 524 531 535 542 546 545 559 569 600 652 644 663 672 745 672 679 710 753 772 794 825 899 838 793 736 736 745 815 863 887 913 880 870 859 828 806 733 712 744 767 777 789 812 852 867 888 911 932 962 996 1023 1037 1043 1075 1094 1105 1153 1184 1196 1233 1255 1272 1298 1318 1286 1263 1280 1270 1310 1336 1369 1471 1605 1681 1731 1832 1916 1953 1972 2012 2055 2154 2159 2100 2054 2025 2009 1954 1978 1990 1986 2075 2087 2087 2035 1936 1993 2028 2076 2171 2232 -9999 -9999 -9999 -9999 -9999 -9999 -9999 -9999
-9999 -9999 -9999 -9999 -9999 -9999 -9999 -9999 -9999 -9999 -9999 -9999 -9999 -9999 -9999 -9999 -9999 -9999 -9999 -9999 -9999 -9999 -9999 -9999 -9999 -9999 -9999 -9999 -9999 -9999 -9999 -9999 494 487 461 458 462 464 472 472 475 486 496 498 524 537 562 499 502 482 534 532 557 559 526 530 501 478 466 495 489 505 487 499 497 520 521 563 588 595 606 606 593 550 557 533 516 509 503 489 491 491 492 494 498 501 504 516 529 557 533 515 518 525 525 529 533 539 547 548 554 560 581 617 612 633 652 716 647 655 694 743 778 796 825 898 830 787 743 758 761 839 875 900 928 906 888 871 840 821 746 715 735 765 771 783 825 858 874 894 917 941 962 990 1015 1029 1038 1061 1073 1088 1134 1168 1186 1218 1239 1259 1278 1291 1272 1248 1253 1274 1300 1319 1415 1495 1569 1649 1729 1810 1895 1965 1984 2044 2075 2163 2162 2106 2056 2048 2023 1967 1991 2000 2007 2093 2117 2125 2062 1944 1991 2069 2084 2184 2219 -9999 -9999 -9999 -9999 -9999 -9999 -9999 -9999
-9999 -9999 -9999 -9999 -9999 -9999 -9999 -9999 -9999 -9999 -9999 -9999 -9999 -9999 -9999 -9999 -9999 -9999 -9999 -9999 -9999 -9999 -9999 -9999 -9999 -9999 -9999 -9999 -9999 -9999 -9999 -9999 -9999 495 491 473 462 472 475 475 477 481 497 512 506 524 570 552 510 506 533 559 558 557 559 521 487 474 490 480 475 477 481 496 498 518 530 538 545 534 561 607 621 607 578 562 552 528 525 505 510 508 498 504 516 517 502 506 518 554 558 535 526 527 528 533 535 539 547 552 556 563 561 569 575 587 602 667 614 644 718 746 749 768 775 867 824 775 809 804 788 823 929 945 960 970 915 890 864 830 763 741 723 743 767 795 838 867 888 905 925 948 966 965 982 1003 1023 1032 1045 1074 1118 1149 1164 1187 1212 1221 1226 1240 1230 1225 1226 1271 1343 1451 1492 1482 1690 1649 1698 1794 1866 1933 1973 2034 2103 2176 2178 2134 2110 2069 2026 1999 2011 2005 2057 2137 2191 2167 2100 2026 1978 2092 2120 2179 2208 -9999 -9999 -9999 -9999 -9999 -9999 -9999 -9999
-9999 -9999 -9999 -9999 -9999 -9999 -9999 -9999 -9999 -9999 -9999 -9999 -9999 -9999 -9999 -9999 -9999 -9999 -9999 -9999 -9999 -9999 -9999 -9999 -9999 -9999 -9999 -9999 -9999 -9999 -9999 -9999 -9999 -9999 489 500 482 487 476 475 471 478 493 499 506 525 562 557 533 559 556 561 561 559 552 512 492 488 539 516 494 487 482 488 494 511 522 504 512 546 583 608 620 624 608 587 579 568 543 524 528 521 516 511 518 519 516 510 510 532 538 549 534 531 533 540 542 548 552 561 575 591 601 596 595 590 621 597 600 628 692 705 739 760 849 836 826 828 851 845 815 841 929 968 983 1009 940 899 862 841 812 780 738 747 797 810 838 853 862 885 909 925 928 933 957 972 1003 1018 1037 1079 1103 1127 1141 1155 1159 1172 1174 1186 1190 1200 1232 1356 1453 1551 1611 1719 1797 1730 1686 1748 1781 1833 1872 1940 2040 2140 2163 2164 2147 2072 2060 2040 2026 2051 2120 2121 2199 2202 2126 2051 2011 2078 2131 2200 2202 -9999 -9999 -9999 -9999 -9999 -9999 -9999 -9999
-9999 -9999 -9999 -9999 -9999 -9999 -9999 -9999 -9999 -9999 -9999 -9999 -9999 -9999 -9999 -9999 -9999 -9999 -9999 -9999 -9999 -9999 -9999 -9999 -9999 -9999 -9999 -9999 -9999 -9999 -9999 -9999 -9999 -9999 -9999 512 503 495 489 472 471 472 492 498 508 515 523 557 555 561 559 562 564 561 549 527 496 494 536 551 523 496 482 478 481 488 491 534 559 559 577 599 605 612 625 619 613 596 537 563 556 534 533 530 525 524 524 516 514 515 527 530 540 549 559 551 551 558 572 584 617 642 636 636 635 616 657 600 603 636 658 704 819 815 789 790 814 868 898 876 861 879 935 1012 1016 1023 944 924 890 869 835 806 763 753 761 767 776 800 814 833 848 865 885 907 914 958 992 1025 1049 1069 1087 1101 1101 1099 1092 1094 1102 1128 1148 1159 1235 1374 1419 1632 1677 1783 1838 1778 1765 1754 1755 1790 1849 1903 2001 2092 2125 2158 2188 2114 2128 2074 2049 2092 2184 2174 2216 2217 2134 2105 2076 2088 2120 2225 -9999 -9999 -9999 -9999 -9999 -9999 -9999 -9999 -9999
-9999 -9999 -9999 -9999 -9999 -9999 -9999 -9999 -9999 -9999 -9999 -9999 -9999 -9999 -9999 -9999 -9999 -9999 -9999 -9999 -9999 -9999 -9999 -9999 -9999 -9999 -9999 -9999 -9999 -9999 -9999 -9999 -9999 -9999 -9999 -9999 510 502 500 484 472 474 492 496 500 503 516 542 558 560 563 564 565 562 563 543 512 499 528 560 550 518 486 489 488 486 488 525 538 516 550 543 562 586 619 628 629 615 573 576 585 580 551 549 546 537 529 525 515 517 520 529 536 542 551 565 573 576 598 616 657 670 675 667 669 675 654 620 605 620 634 674 776 755 739 746 787 819 865 884 914 915 963 1049 1054 1018 969 947 916 888 837 807 808 769 789 803 824 811 835 852 884 889 884 909 916 903 932 951 1019 1051 1072 1068 1069 1060 1044 1080 1109 1114 1128 1168 1305 1389 1575 1685 1743 1821 1894 1866 1847 1846 1824 1877 1903 1957 2058 2139 2132 2135 2171 2166 2150 2111 2114 2168 2239 2277 2274 2235 2193 2161 2150 2161 2175 -9999 -9999 -9999 -9999 -9999 -9999 -9999 -9999 -9999 -9999
-9999 -9999 -9999 -9999 -9999 -9999 -9999 -9999 -9999 -9999 -9999 -9999 -9999 -9999 -9999 -9999 -9999 -9999 -9999 -9999 -9999 -9999 -9999 -9999 -9999 -9999 -9999 -9999 -9999 -9999 -9999 -9999 -9999 -9999 -9999 -9999 -9999 515 510 494 476 477 481 488 491 499 506 514 544 556 563 563 567 565 565 562 539 517 515 555 559 540 493 490 509 491 490 498 499 519 515 514 546 602 623 629 631 629 628 616 612 593 575 574 562 545 534 532 523 524 527 534 540 559 552 562 565 571 605 646 662 684 707 735 719 690 675 651 651 639 644 654 705 702 696 744 769 797 840 894 941 964 1039 1096 1101 1037 993 964 932 902 859 845 825 799 826 845 841 855 867 906 946 954 963 958 973 983 979 973 976 1000 1010 1015 1023 1038 1062 1108 1131 1188 1231 1254 1298 1398 1593 1720 1795 1896 1960 1946 1943 1949 1929 1945 1979 2017 2118 2175 2138 2161 2149 2172 2165 2179 2186 2254 2298 2344 2355 2293 2256 2245 2230 2241 -9999 -9999 -9999 -9999 -9999 -9999 -9999 -9999 -9999 -9999 -9999
-9999 -9999 -9999 -9999 -9999 -9999 -9999 -9999 -9999 -9999 -9999 -9999 -9999 -9999 -9999 -9999 -9999 -9999 -9999 -9999 -9999 -9999 -9999 -9999 -9999 -9999 -9999 -9999 -9999 -9999 -9999 -9999 -9999 -9999 -9999 -9999 -9999 526 505 488 480 479 481 483 486 488 499 509 526 544 558 564 566 567 565 562 540 540 544 559 563 554 507 487 509 514 490 492 493 495 502 523 563 583 600 617 622 631 635 640 641 632 620 599 586 574 557 540 528 528 537 537 557 563 557 570 575 588 619 657 674 706 763 769 719 708 702 698 692 705 740 701 660 669 708 762 795 829 872 897 924 990 1082 1129 1117 1048 1025 988 946 911 865 852 865 805 822 836 875 912 934 949 987 1003 1013 1022 1032 1029 1019 1011 1045 1058 1063 1045 1062 1055 1077 1115 1167 1234 1257 1353 1378 1481 1608 1735 1795 1892 1974 2000 2038 2003 2016 2014 2041 2070 2180 2190 2200 2180 2152 2164 2178 2177 2189 2212 2261 2319 2412 2374 2341 2351 2312 -9999 -9999 -9999 -9999 -9999 -9999 -9999 -9999 -9999 -9999 -9999 -9999
-9999 -9999 -9999 -9999 -9999 -9999 -9999 -9999 -9999 -9999 -9999 -9999 -9999 -9999 -9999 -9999 -9999 -9999 -9999 -9999 -9999 -9999 -9999 -9999 -9999 -9999 -9999 -9999 -9999 -9999 -9999 -9999 -9999 -9999 -9999 -9999 -9999 535 510 511 487 483 483 483 487 489 490 499 512 533 543 558 568 570 567 562 559 557 552 560 563 567 552 508 491 519 545 522 506 497 496 503 526 543 554 561 578 593 603 625 632 642 642 630 626 616 585 562 533 532 551 545 546 559 573 584 595 603 611 643 664 693 797 758 743 738 731 752 743 765 790 696 656 666 695 733 773 804 859 911 955 1059 1136 1144 1112 1068 1041 993 949 916 886 891 873 816 846 846 838 898 951 993 1016 1042 1058 1076 1075 1073 1064 1055 1062 1112 1103 1094 1110 1096 1073 1112 1153 1198 1237 1300 1390 1506 1637 1808 1845 1858 1908 1965 2053 2045 2039 2082 2094 2137 2199 2192 2233 2179 2166 2183 2177 2203 2210 2283 2310 2295 2373 2431 2425 2407 -9999 -9999 -9999 -9999 -9999 -9999 -9999 -9999 -9999 -9999 -9999 -9999 -9999
-9999 -9999 -9999 -9999 -9999 -9999 -9999 -9999 -9999 -9999 -9999 -9999 -9999 -9999 -9999 -9999 -9999 -9999 -9999 -9999 -9999 -9999 -9999 -9999 -9999 -9999 -9999 -9999 -9999 -9999 -9999 -9999 -9999 -9999 -9999 -9999 -9999 -9999 515 525 509 496 483 484 486 488 490 494 500 504 511 543 565 568 565 562 560 562 563 562 566 566 565 530 508 511 559 570 554 550 532 503 504 509 516 533 535 554 574 594 617 641 644 652 653 646 616 573 536 539 552 567 571 560 571 587 604 634 644 664 664 736 765 752 773 778 776 792 783 851 796 692 662 672 714 752 783 827 854 895 1030 1103 1100 1077 1080 1090 1049 1009 977 935 913 900 841 866 908 925 928 885 858 890 957 1068 1107 1125 1120 1119 1114 1101 1105 1159 1139 1138 1152 1131 1095 1120 1166 1228 1251 1313 1406 1465 1603 1756 1774 1791 1869 1941 2035 2100 2074 2105 2170 2155 2123 2126 2224 2198 2185 2194 2199 2214 2264 2265 2293 2359 2395 2454 2382 -9999 -9999 -9999 -9999 -9999 -9999 -9999 -9999 -9999 -9999 -9999 -9999 -9999 -9999
-9999 -9999 -9999 -9999 -9999 -9999 -9999 -9999 -9999 -9999 -9999 -9999 -9999 -9999 -9999 -9999 -9999 -9999 -9999 -9999 -9999 -9999 -9999 -9999 -9999 -9999 -9999 -9999 -9999 -9999 -9999 -9999 -9999 -9999 -9999 -9999 -9999 -9999 -9999 539 549 531 502 484 489 490 492 495 499 498 505 529 544 561 566 560 562 563 564 564 566 572 568 571 549 503 515 545 567 575 577 523 507 522 559 567 596 613 609 618 641 647 651 653 655 652 607 553 541 554 563 560 591 582 574 595 609 628 677 692 732 732 738 773 797 801 815 821 826 834 743 685 673 675 712 748 788 825 891 980 1054 1051 1027 1031 1037 1055 1055 1010 976 950 940 911 867 916 962 982 1018 996 961 939 890 985 1073 1156 1170 1167 1162 1146 1138 1199 1179 1193 1182 1161 1125 1122 1142 1183 1215 1281 1408 1484 1606 1717 1739 1793 1875 1916 2001 2065 2120 2132 2154 2068 2040 2084 2178 2228 2204 2209 2217 2228 2316 2338 2381 2384 2455 2430 -9999 -9999 -9999 -9999 -9999 -9999 -9999 -9999 -9999 -9999 -9999 -9999 -9999 -9999 -9999
-9999 -9999 -9999 -9999 -9999 -9999 -9999 -9999 -9999 -9999 -9999 -9999 -9999 -9999 -9999 -9999 -9999 -9999 -9999 -9999 -9999 -9999 -9999 -9999 -9999 -9999 -9999 -9999 -9999 -9999 -9999 -9999 -9999 -9999 -9999 -9999 -9999 -9999 -9999 539 545 548 527 513 489 489 491 493 496 497 500 508 519 530 544 556 564 564 564 565 568 569 570 571 570 517 505 551 575 578 579 536 511 516 535 557 591 624 634 640 643 646 647 646 652 651 591 550 549 566 554 565 580 598 600 601 607 633 659 717 788 748 754 783 816 841 861 826 813 799 716 685 686 691 713 755 814 897 939 979 975 997 992 1006 1015 1052 1056 1020 984 961 930 928 921 956 1009 1046 1079 1110 1067 1043 955 911 953 1017 1085 1204 1207 1184 1175 1250 1217 1220 1206 1192 1156 1139 1151 1188 1246 1349 1447 1550 1618 1667 1672 1769 1779 1865 1938 2035 2057 2051 2096 2021 1959 2047 2151 2207 2232 2214 2224 2256 2333 2403 2442 2456 2477 -9999 -9999 -9999 -9999 -9999 -9999 -9999 -9999 -9999 -9999 -9999 -9999 -9999 -9999 -9999 -9999
-9999 -9999 -9999 -9999 -9999 -9999 -9999 -9999 -9999 -9999 -9999 -9999 -9999 -9999 -9999 -9999 -9999 -9999 -9999 -9999 -9999 -9999 -9999 -9999 -9999 -9999 -9999 -9999 -9999 -9999 -9999 -9999 -9999 -9999 -9999 -9999 -9999 -9999 -9999 503 500 533 541 539 515 517 494 491 495 497 499 505 516 512 524 541 558 561 564 564 564 570 572 572 574 558 514 526 557 576 579 580 538 514 516 530 544 587 595 622 624 612 614 643 645 624 575 554 563 571 561 579 598 618 631 635 638 630 648 721 753 753 775 801 833 875 846 805 778 734 702 706 719 740 771 774 845 846 863 895 929 949 975 993 1004 1019 1043 1016 990 965 958 944 979 1020 1052 1076 1138 1169 1180 1116 1031 979 949 968 993 1156 1249 1226 1211 1288 1258 1243 1232 1219 1202 1179 1167 1200 1260 1330 1490 1566 1559 1646 1663 1645 1697 1751 1901 1964 1930 1970 1998 1972 1929 2058 2083 2116 2198 2248 2276 2338 2331 2412 2501 -9999 -9999 -9999 -9999 -9999 -9999 -9999 -9999 -9999 -9999 -9999 -9999 -9999 -9999 -9999 -9999 -9999 -9999
-9999 -9999 -9999 -9999 -9999 -9999 -9999 -9999 -9999 -9999 -9999 -9999 -9999 -9999 -9999 -9999 -9999 -9999 -9999 -9999 -9999 -9999 -9999 -9999 -9999 -9999 -9999 -9999 -9999 -9999 -9999 -9999 -9999 -9999 -9999 -9999 -9999 -9999 -9999 -9999 492 516 534 537 532 542 513 504 497 502 503 510 514 508 518 525 536 554 563 565 567 573 572 572 576 573 553 517 531 572 581 585 579 554 540 526 524 528 541 566 568 586 631 647 648 650 587 562 569 584 569 579 599 622 678 684 667 678 717 722 729 762 798 823 873 881 848 809 758 722 724 746 766 776 831 849 779 783 806 850 880 915 933 963 984 1021 1039 1010 990 998 1004 966 1022 1080 1135 1136 1173 1231 1247 1196 1108 1094 1016 1051 1020 1104 1280 1267 1247 1327 1293 1273 1264 1270 1243 1215 1194 1226 1282 1346 1470 1519 1521 1578 1571 1590 1651 1685 1818 1867 1842 1884 1942 1892 1892 1980 1979 2068 2171 2277 2282 2317 2405 2446 2501 -9999 -9999 -9999 -9999 -9999 -9999 -9999 -9999 -9999 -9999 -9999 -9999 -9999 -9999 -9999 -9999 -9999 -9999
-9999 -9999 -9999 -9999 -9999 -9999 -9999 -9999 -9999 -9999 -9999 -9999 -9999 -9999 -9999 -9999 -9999 -9999 -9999 -9999 -9999 -9999 -9999 -9999 -9999 -9999 -9999 -9999 -9999 -9999 -9999 -9999 -9999 -9999 -9999 -9999 -9999 -9999 -9999 -9999 497 528 527 540 544 544 542 542 520 507 525 508 507 507 519 515 529 535 540 563 568 572 574 571 580 576 564 524 531 538 576 584 586 587 575 566 545 526 534 534 562 599 602 631 648 648 578 567 574 584 595 590 615 649 682 705 732 776 765 731 740 782 806 834 899 879 852 819 758 759 757 780 820 835 888 889 823 808 802 857 880 907 942 971 987 1013 1034 1019 1021 1026 1012 1030 1056 1124 1177 1211 1222 1274 1295 1262 1230 1182 1067 1070 1110 1090 1189 1272 1296 1345 1311 1294 1302 1304 1278 1255 1229 1262 1280 1329 1426 1467 1468 1493 1494 1569 1593 1712 1812 1809 1773 1829 1880 1804 1889 1869 1906 2007 2145 2282 2310 2338 2395 2472 2460 2394 -9999 -9999 -9999 -9999 -9999 -9999 -9999 -9999 -9999 -9999 -9999 -9999 -9999 -9999 -9999 -9999 -9999
-9999 -9999 -9999 -9999 -9999 -9999 -9999 -9999 -9999 -9999 -9999 -9999 -9999 -9999 -9999 -9999 -9999 -9999 -9999 -9999 -9999 -9999 -9999 -9999 -9999 -9999 -9999 -9999 -9999 -9999 -9999 -9999 -9999 -9999 -9999 -9999 -9999 -9999 -9999 -9999 -9999 -9999 -9999 -9999 535 544 551 541 519 511 524 516 509 508 510 524 520 517 535 550 563 571 572 575 576 581 571 551 566 533 573 583 587 592 590 595 580 561 563 538 549 563 601 594 625 642 583 570 581 586 598 603 616 643 709 749 760 766 759 765 781 796 828 872 898 872 830 780 781 779 802 840 878 892 923 893 851 838 817 832 855 883 933 962 978 1002 1029 1046 1065 1062 1058 1077 1094 1159 1212 1250 1294 1326 1370 1379 1273 1166 1099 1071 1184 1149 1114 1155 1244 1266 1204 1223 1219 1251 1255 1259 1270 1274 1297 1357 1402 1448 1427 1450 1468 1494 1586 1686 1760 1726 1715 1789 1826 1787 1801 1814 1914 2012 2138 2236 2265 2294 2322 2378 2440 2396 2306 -9999 -9999 -9999 -9999 -9999 -9999 -9999 -9999 -9999 -9999 -9999 -9999 -9999 -9999 -9999 -9999
-9999 -9999 -9999 -9999 -9999 -9999 -9999 -9999 -9999 -9999 -9999 -9999 -9999 -9999 -9999 -9999 -9999 -9999 -9999 -9999 -9999 -9999 -9999 -9999 -9999 -9999 -9999 -9999 -9999 -9999 -9999 -9999 -9999 -9999 -9999 -9999 -9999 -9999 -9999 -9999 -9999 -9999 -9999 -9999 -9999 524 555 549 528 523 520 528 512 511 514 525 519 515 523 541 567 569 577 578 579 581 569 563 581 560 566 588 585 593 593 595 597 579 581 553 548 598 606 632 639 615 576 581 591 601 597 620 628 644 673 734 747 774 809 805 809 818 854 898 873 864 817 800 791 796 829 866 905 924 952 889 867 873 835 875 872 891 913 948 964 994 1024 1052 1102 1093 1094 1107 1118 1197 1268 1292 1359 1406 1415 1434 1325 1254 1165 1070 1158 1234 1224 1153 1141 1157 1229 1274 1266 1275 1304 1279 1276 1299 1316 1331 1367 1384 1423 1492 1508 1474 1604 1647 1687 1649 1691 1734 1777 1740 1784 1873 1966 2036 2087 2134 2156 2155 2185 2217 2328 2342 2275 -9999 -9999 -9999 -9999 -9999 -9999 -9999 -9999 -9999 -9999 -9999 -9999 -9999 -9999 -9999 -9999
-9999 -9999 -9999 -9999 -9999 -9999 -9999 -9999 -9999 -9999 -9999 -9999 -9999 -9999 -9999 -9999 -9999 -9999 -9999 -9999 -9999 -9999 -9999 -9999 -9999 -9999 -9999 -9999 -9999 -9999 -9999 -9999 -9999 -9999 -9999 -9999 -9999 -9999 -9999 -9999 -9999 -9999 -9999 -9999 -9999 -9999 -9999 563 546 526 516 530 522 515 517 525 529 528 520 530 550 571 572 580 581 582 581 570 584 586 572 566 587 592 592 599 600 601 598 563 548 580 631 628 608 590 583 601 636 628 603 612 656 705 699 722 738 768 794 827 843 858 893 903 866 841 800 815 815 841 886 920 959 982 965 900 889 892 863 883 930 922 927 942 952 976 1015 1071 1109 1140 1130 1159 1201 1192 1308 1330 1412 1457 1477 1387 1306 1246 1202 1129 1115 1206 1264 1230 1230 1166 1274 1336 1323 1316 1341 1327 1310 1344 1334 1387 1411 1431 1466 1569 1595 1528 1525 1555 1586 1616 1638 1678 1697 1736 1805 1904 1993 1951 2012 2092 2091 2035 2050 2168 2267 2330 2294 -9999 -9999 -9999 -9999 -9999 -9999 -9999 -9999 -9999 -9999 -9999 -9999 -9999 -9999 -9999 -9999
-9999 -9999 -9999 -9999 -9999 -9999 -9999 -9999 -9999 -9999 -9999 -9999 -9999 -9999 -9999 -9999 -9999 -9999 -9999 -9999 -9999 -9999 -9999 -9999 -9999 -9999 -9999 -9999 -9999 -9999 -9999 -9999 -9999 -9999 -9999 -9999 -9999 -9999 -9999 -9999 -9999 -9999 -9999 -9999 -9999 -9999 -9999 -9999 -9999 527 518 529 527 515 517 521 526 526 529 527 541 564 573 577 582 584 585 569 583 584 586 572 574 591 595 600 601 605 605 565 553 571 607 599 598 591 587 599 651 634 611 622 640 669 695 725 736 760 787 821 848 884 915 900 879 859 802 821 834 862 912 948 983 1005 960 901 906 904 884 881 932 937 933 948 961 986 1022 1069 1110 1147 1156 1175 1235 1202 1302 1359 1445 1501 1476 1377 1268 1198 1164 1130 1118 1202 1287 1255 1269 1172 1264 1370 1348 1332 1371 1347 1336 1359 1354 1420 1449 1469 1447 1573 1609 1567 1563 1580 1580 1616 1667 1697 1711 1759 1798 1893 1972 1925 1978 2040 2037 1990 2024 2160 2265 2318 2257 -9999 -9999 -9999 -9999 -9999 -9999 -9999 -9999 -9999 -9999 -9999 -9999 -9999 -9999 -9999 -9999
-9999 -9999 -9999 -9999 -9999 -9999 -9999 -9999 -9999 -9999 -9999 -9999 -9999 -9999 -9999 -9999 -9999 -9999 -9999 -9999 -9999 -9999 -9999 -9999 -9999 -9999 -9999 -9999 -9999 -9999 -9999 -9999 -9999 -9999 -9999 -9999 -9999 -9999 -9999 -9999 -9999 -9999 -9999 -9999 -9999 -9999 -9999 -9999 -9999 -9999 526 526 531 527 520 521 533 530 529 526 528 531 570 575 581 584 585 578 585 587 590 591 590 583 594 599 605 608 610 579 557 553 564 588 612 609 594 601 627 646 629 649 655 666 683 728 748 770 802 825 863 894 938 936 939 871 823 828 849 912 948 989 1025 1027 960 927 928 925 928 906 951 968 954 963 968 994 1029 1066 1105 1160 1198 1206 1284 1303 1371 1405 1485 1538 1436 1322 1270 1241 1181 1183 1120 1208 1316 1300 1343 1214 1225 1344 1362 1397 1442 1413 1383 1399 1376 1402 1472 1544 1495 1497 1537 1635 1643 1686 1685 1709 1733 1775 1805 1790 1847 1890 1859 1852 1918 1939 1928 1934 2037 2133 2167 2242 2199 -9999 -9999 -9999 -9999 -9999 -9999 -9999 -9999 -9999 -9999 -9999 -9999 -9999 -9999 -9999 -9999
-9999 -9999 -9999 -9999 -9999 -9999 -9999 -9999 -9999 -9999 -9999 -9999 -9999 -9999 -9999 -9999 -9999 -9999 -9999 -9999 -9999 -9999 -9999 -9999 -9999 -9999 -9999 -9999 -9999 -9999 -9999 -9999 -9999 -9999 -9999 -9999 -9999 -9999 -9999 -9999 -9999 -9999 -9999 -9999 -9999 -9999 -9999 -9999 -9999 -9999 -9999 529 531 533 530 526 530 532 528 534 538 530 544 572 583 583 586 586 588 588 591 592 595 593 595 600 605 614 619 616 577 556 568 590 625 633 602 610 624 647 662 658 672 695 720 734 746 777 795 834 875 907 956 1006 942 852 850 855 886 949 980 1022 1050 1008 959 953 951 950 960 947 942 981 989 981 997 1016 1025 1093 1139 1185 1247 1254 1314 1374 1429 1459 1529 1582 1490 1400 1343 1324 1274 1265 1136 1183 1303 1386 1358 1257 1212 1278 1332 1439 1513 1462 1396 1418 1440 1421 1487 1557 1527 1549 1572 1588 1669 1763 1770 1731 1703 1691 1779 1866 1899 1835 1771 1750 1857 1910 1874 1956 2029 2013 2063 2120 2192 2140 -9999 -9999 -9999 -9999 -9999 -9999 -9999 -9999 -9999 -9999 -9999 -9999 -9999 -9999 -9999
-9999 -9999 -9999 -9999 -9999 -9999 -9999 -9999 -9999 -9999 -9999 -9999 -9999 -9999 -9999 -9999 -9999 -9999 -9999 -9999 -9999 -9999 -9999 -9999 -9999 -9999 -9999 -9999 -9999 -9999 -9999 -9999 -9999 -9999 -9999 -9999 -9999 -9999 -9999 -9999 -9999 -9999 -9999 -9999 -9999 -9999 -9999 -9999 -9999 -9999 -9999 -9999 533 533 537 541 530 529 532 537 539 543 534 551 572 579 585 588 588 591 593 596 596 601 599 603 607 622 643 641 588 561 579 582 616 627 615 613 632 661 685 690 702 716 733 771 778 791 815 847 882 925 966 1009 908 862 872 883 921 982 1027 1070 1049 997 975 976 975 976 982 994 997 1003 1018 1003 1014 1042 1056 1121 1164 1191 1235 1284 1348 1420 1479 1497 1574 1635 1556 1461 1431 1436 1354 1252 1177 1230 1299 1408 1433 1325 1228 1306 1350 1416 1460 1458 1417 1433 1457 1496 1506 1574 1566 1581 1618 1682 1674 1730 1691 1641 1587 1628 1710 1795 1821 1747 1680 1685 1795 1812 1832 1906 1904 1888 1954 2040 2189 2219 -9999 -9999 -9999 -9999 -9999 -9999 -9999 -9999 -9999 -9999 -9999 -9999 -9999 -9999 -9999
-9999 -9999 -9999 -9999 -9999 -9999 -9999 -9999 -9999 -9999 -9999 -9999 -9999 -9999 -9999 -9999 -9999 -9999 -9999 -9999 -9999 -9999 -9999 -9999 -9999 -9999 -9999 -9999 -9999 -9999 -9999 -9999 -9999 -9999 -9999 -9999 -9999 -9999 -9999 -9999 -9999 -9999 -9999 -9999 -9999 -9999 -9999 -9999 -9999 -9999 -9999 -9999 -9999 538 538 542 544 545 534 532 538 542 539 538 563 578 585 589 591 594 594 592 598 601 603 609 611 644 673 617 593 567 581 609 609 627 626 620 631 662 687 710 730 744 758 791 801 816 859 862 895 940 1000 980 910 878 897 921 972 1010 1069 1109 1044 1010 997 997 1004 1002 1011 1033 1027 1026 1027 1035 1046 1068 1095 1160 1190 1193 1264 1321 1383 1441 1520 1549 1604 1664 1654 1563 1519 1408 1311 1224 1212 1277 1377 1409 1432 1375 1338 1316 1283 1311 1397 1439 1472 1459 1474 1514 1568 1603 1641 1646 1661 1725 1728 1659 1656 1579 1518 1578 1676 1735 1710 1734 1626 1629 1713 1726 1762 1768 1854 1834 1894 2087 2220 2254 2226 -9999 -9999 -9999 -9999 -9999 -9999 -9999 -9999 -9999 -9999 -9999 -9999 -9999 -9999
-9999 -9999 -9999 -9999 -9999 -9999 -9999 -9999 -9999 -9999 -9999 -9999 -9999 -9999 -9999 -9999 -9999 -9999 -9999 -9999 -9999 -9999 -9999 -9999 -9999 -9999 -9999 -9999 -9999 -9999 -9999 -9999 -9999 -9999 -9999 -9999 -9999 -9999 -9999 -9999 -9999 -9999 -9999 -9999 -9999 -9999 -9999 -9999 -9999 -9999 -9999 -9999 -9999 -9999 536 541 545 546 548 544 543 547 552 548 546 554 577 589 593 596 595 598 599 604 610 609 626 669 673 613 578 570 589 603 627 653 653 632 637 649 674 702 730 759 796 805 809 832 846 876 917 962 1028 970 933 908 917 978 1024 1062 1099 1123 1050 1033 1020 1027 1039 1039 1050 1058 1052 1054 1063 1059 1075 1107 1135 1189 1214 1231 1303 1373 1440 1495 1551 1573 1643 1706 1711 1668 1571 1415 1276 1262 1279 1360 1420 1421 1387 1379 1358 1371 1382 1371 1408 1489 1485 1490 1482 1532 1547 1637 1747 1758 1758 1787 1695 1615 1561 1545 1487 1606 1624 1603 1622 1673 1604 1579 1640 1629 1658 1689 1750 1818 1912 2017 2173 2208 2165 2142 -9999 -9999 -9999 -9999 -9999 -9999 -9999 -9999 -9999 -9999 -9999 -9999 -9999
-9999 -9999 -9999 -9999 -9999 -9999 -9999 -9999 -9999 -9999 -9999 -9999 -9999 -9999 -9999 -9999 -9999 -9999 -9999 -9999 -9999 -9999 -9999 -9999 -9999 -9999 -9999 -9999 -9999 -9999 -9999 -9999 -9999 -9999 -9999 -9999 -9999 -9999 -9999 -9999 -9999 -9999 -9999 -9999 -9999 -9999 -9999 -9999 -9999 -9999 -9999 -9999 -9999 -9999 -9999 542 546 548 548 552 542 543 551 552 546 546 553 569 575 593 600 597 601 606 609 626 646 664 683 633 607 576 575 593 608 613 645 648 637 660 681 712 729 758 799 814 818 847 869 898 937 1028 999 967 930 942 944 1009 1065 1098 1148 1140 1079 1056 1054 1063 1064 1076 1081 1082 1089 1081 1082 1090 1105 1142 1181 1209 1251 1288 1341 1416 1482 1541 1607 1634 1688 1648 1584 1551 1552 1393 1380 1371 1406 1425 1412 1418 1415 1392 1377 1383 1389 1428 1421 1438 1480 1532 1556 1567 1608 1672 1683 1691 1716 1809 1757 1690 1619 1499 1470 1605 1535 1474 1529 1563 1533 1542 1569 1658 1665 1667 1742 1832 1886 2020 2134 2188 2113 2078 -9999 -9999 -9999 -9999 -9999 -9999 -9999 -9999 -9999 -9999 -9999 -9999 -9999
-9999 -9999 -9999 -9999 -9999 -9999 -9999 -9999 -9999 -9999 -9999 -9999 -9999 -9999 -9999 -9999 -9999 -9999 -9999 -9999 -9999 -9999 -9999 -9999 -9999 -9999 -9999 -9999 -9999 -9999 -9999 -9999 -9999 -9999 -9999 -9999 -9999 -9999 -9999 -9999 -9999 -9999 -9999 -9999 -9999 -9999 -9999 -9999 -9999 -9999 -9999 -9999 -9999 -9999 -9999 -9999 545 547 550 552 552 554 556 556 556 553 552 560 566 591 596 599 606 608 615 651 671 674 635 609 584 609 606 588 592 597 606 613 626 652 683 712 743 761 790 817 831 857 885 919 968 1041 1007 988 956 967 973 1049 1100 1144 1188 1157 1111 1100 1085 1083 1091 1102 1101 1114 1119 1107 1114 1122 1135 1166 1224 1236 1294 1352 1399 1465 1532 1581 1644 1666 1590 1547 1461 1409 1463 1518 1494 1434 1420 1407 1417 1387 1386 1369 1375 1382 1394 1401 1464 1447 1452 1490 1523 1543 1570 1602 1624 1694 1719 1819 1790 1669 1546 1460 1480 1567 1464 1463 1463 1481 1521 1608 1687 1770 1801 1800 1837 1883 1962 2085 2149 2153 2098 2036 2026 -9999 -9999 -9999 -9999 -9999 -9999 -9999 -9999 -9999 -9999 -9999 -9999
-9999 -9999 -9999 -9999 -9999 -9999 -9999 -9999 -9999 -9999 -9999 -9999 -9999 -9999 -9999 -9999 -9999 -9999 -9999 -9999 -9999 -9999 -9999 -9999 -9999 -9999 -9999 -9999 -9999 -9999 -9999 -9999 -9999 -9999 -9999 -9999 -9999 -9999 -9999 -9999 -9999 -9999 -9999 -9999 -9999 -9999 -9999 -9999 -9999 -9999 -9999 -9999 -9999 -9999 -9999 -9999 -9999 549 557 559 559 559 563 562 554 561 550 560 559 572 596 598 606 612 636 666 650 641 654 612 634 623 658 605 598 598 613 625 637 655 693 710 735 763 785 816 838 872 900 939 1044 1019 992 980 982 996 1016 1093 1141 1184 1218 1172 1130 1128 1113 1109 1118 1121 1119 1121 1114 1093 1101 1146 1170 1211 1268 1288 1352 1445 1505 1545 1559 1576 1611 1600 1484 1440 1383 1328 1425 1402 1423 1339 1330 1358 1352 1399 1374 1399 1384 1389 1389 1413 1449 1512 1462 1493 1499 1510 1555 1589 1671 1729 1767 1833 1725 1657 1537 1418 1469 1500 1414 1514 1513 1576 1629 1661 1786 1875 1905 1874 1961 1989 2053 2107 2109 2099 2044 2025 1987 1961 -9999 -9999 -9999 -9999 -9999 -9999 -9999 -9999 -9999 -9999 -9999
-9999 -9999 -9999 -9999 -9999 -9999 -9999 -9999 -9999 -9999 -9999 -9999 -9999 -9999 -9999 -9999 -9999 -9999 -9999 -9999 -9999 -9999 -9999 -9999 -9999 -9999 -9999 -9999 -9999 -9999 -9999 -9999 -9999 -9999 -9999 -9999 -9999 -9999 -9999 -9999 -9999 -9999 -9999 -9999 -9999 -9999 -9999 -9999 -9999 -9999 -9999 -9999 -9999 -9999 -9999 -9999 -9999 -9999 551 553 557 561 566 568 565 560 563 554 557 561 564 571 610 632 653 638 607 631 673 665 660 645 641 630 617 621 614 630 664 674 705 741 751 763 789 826 848 877 909 941 1045 1001 965 974 963 985 1048 1115 1164 1182 1141 1132 1116 1107 1107 1102 1068 1081 1102 1074 1054 1058 1117 1167 1191 1241 1278 1323 1397 1497 1567 1545 1569 1477 1472 1472 1404 1336 1305 1269 1315 1302 1353 1276 1252 1256 1284 1348 1401 1403 1405 1403 1414 1427 1468 1496 1491 1524 1524 1548 1610 1674 1735 1764 1778 1780 1655 1593 1506 1391 1421 1419 1429 1541 1606 1622 1717 1761 1853 1890 1918 1957 2023 2108 2129 2093 2049 2023 1990 1968 1944 1937 1939 -9999 -9999 -9999 -9999 -9999 -9999 -9999 -9999 -9999 -9999
-9999 -9999 -9999 -9999 -9999 -9999 -9999 -9999 -9999 -9999 -9999 -9999 -9999 -9999 -9999 -9999 -9999 -9999 -9999 -9999 -9999 -9999 -9999 -9999 -9999 -9999 -9999 -9999 -9999 -9999 -9999 -9999 -9999 -9999 -9999 -9999 -9999 -9999 -9999 -9999 -9999 -9999 -9999 -9999 -9999 -9999 -9999 -9999 -9999 -9999 -9999 -9999 -9999 -9999 -9999 -9999 -9999 -9999 -9999 554 558 564 566 569 571 571 563 558 558 560 561 566 593 631 637 596 603 629 651 675 660 656 665 676 643 652 628 624 641 685 720 767 770 772 802 815 828 856 893 938 1025 982 939 956 948 1017 1087 1136 1163 1121 1091 1082 1068 1063 1075 1053 1019 1033 1052 1028 1017 1048 1101 1146 1181 1220 1258 1358 1451 1517 1452 1465 1507 1467 1394 1363 1321 1250 1268 1231 1235 1230 1283 1273 1213 1231 1236 1330 1333 1353 1356 1296 1315 1366 1370 1427 1472 1492 1560 1597 1616 1650 1738 1762 1757 1700 1603 1503 1436 1363 1416 1418 1495 1544 1653 1706 1776 1830 1822 1800 1817 1912 2017 2147 2144 2110 2054 1966 1903 1878 1884 1991 2010 2015 -9999 -9999 -9999 -9999 -9999 -9999 -9999 -9999 -9999
-9999 -9999 -9999 -9999 -9999 -9999 -9999 -9999 -9999 -9999 -9999 -9999 -9999 -9999 -9999 -9999 -9999 -9999 -9999 -9999 -9999 -9999 -9999 -9999 -9999 -9999 -9999 -9999 -9999 -9999 -9999 -9999 -9999 -9999 -9999 -9999 -9999 -9999 -9999 -9999 -9999 -9999 -9999 -9999 -9999 -9999 -9999 -9999 -9999 -9999 -9999 -9999 -9999 -9999 -9999 -9999 -9999 -9999 -9999 -9999 564 563 570 573 575 575 573 566 564 564 568 569 573 580 586 603 627 647 676 675 638 630 653 681 690 697 661 663 644 691 735 777 753 752 766 776 782 797 861 901 941 969 926 934 983 1053 1101 1084 1067 1047 1039 1030 1029 1030 1041 1010 974 1003 1008 983 992 1072 1113 1181 1217 1252 1306 1396 1488 1441 1355 1378 1439 1477 1421 1355 1254 1178 1214 1178 1149 1189 1222 1265 1175 1208 1279 1294 1267 1266 1276 1223 1226 1253 1268 1307 1356 1389 1482 1609 1656 1706 1740 1652 1628 1638 1559 1469 1408 1357 1412 1469 1517 1577 1614 1720 1746 1763 1725 1755 1805 1905 2044 2119 2082 2073 2008 1923 1856 1799 1940 1996 2036 2097 2155 -9999 -9999 -9999 -9999 -9999 -9999 -9999 -9999
-9999 -9999 -9999 -9999 -9999 -9999 -9999 -9999 -9999 -9999 -9999 -9999 -9999 -9999 -9999 -9999 -9999 -9999 -9999 -9999 -9999 -9999 -9999 -9999 -9999 -9999 -9999 -9999 -9999 -9999 -9999 -9999 -9999 -9999 -9999 -9999 -9999 -9999 -9999 -9999 -9999 -9999 -9999 -9999 -9999 -9999 -9999 -9999 -9999 -9999 -9999 -9999 -9999 -9999 -9999 -9999 -9999 -9999 -9999 -9999 -9999 569 571 576 575 581 580 569 566 570 568 572 578 575 580 595 608 639 658 645 622 633 636 677 669 678 672 675 646 688 733 766 742 740 750 759 767 780 859 874 906 957 923 937 1006 1061 1055 1034 1038 1026 1030 1014 1013 1012 1011 998 964 988 979 958 1009 1073 1121 1182 1208 1236 1324 1421 1450 1394 1324 1351 1389 1421 1435 1376 1256 1169 1176 1146 1141 1163 1221 1224 1184 1195 1245 1268 1249 1251 1245 1203 1207 1202 1230 1269 1352 1427 1532 1609 1703 1727 1720 1600 1570 1583 1531 1427 1363 1342 1375 1421 1466 1517 1574 1688 1734 1709 1681 1724 1788 1872 2035 2073 2051 2040 1973 1892 1814 1799 1946 2024 2051 2151 2203 2243 -9999 -9999 -9999 -9999 -9999 -9999 -9999
-9999 -9999 -9999 -9999 -9999 -9999 -9999 -9999 -9999 -9999 -9999 -9999 -9999 -9999 -9999 -9999 -9999 -9999 -9999 -9999 -9999 -9999 -9999 -9999 -9999 -9999 -9999 -9999 -9999 -9999 -9999 -9999 -9999 -9999 -9999 -9999 -9999 -9999 -9999 -9999 -9999 -9999 -9999 -9999 -9999 -9999 -9999 -9999 -9999 -9999 -9999 -9999 -9999 -9999 -9999 -9999 -9999 -9999 -9999 -9999 -9999 -9999 575 581 580 583 585 586 592 580 579 571 579 579 585 583 597 599 605 604 609 604 617 627 638 632 634 642 640 661 686 727 708 714 719 727 732 758 829 830 845 918 906 957 1006 957 960 981 993 999 1003 989 987 983 966 937 946 933 916 953 1004 1092 1153 1182 1195 1270 1369 1425 1333 1371 1291 1295 1336 1339 1342 1354 1311 1209 1125 1135 1125 1127 1217 1153 1163 1127 1168 1247 1205 1201 1194 1153 1158 1197 1260 1317 1369 1464 1612 1665 1718 1686 1644 1602 1536 1479 1476 1375 1307 1362 1419 1455 1494 1540 1626 1699 1643 1619 1656 1790 1846 1939 2012 2035 1969 1955 1903 1836 1741 1839 1960 2044 2050 2090 2169 2255 2319 -9999 -9999 -9999 -9999 -9999 -9999
-9999 -9999 -9999 -9999 -9999 -9999 -9999 -9999 -9999 -9999 -9999 -9999 -9999 -9999 -9999 -9999 -9999 -9999 -9999 -9999 -9999 -9999 -9999 -9999 -9999 -9999 -9999 -9999 -9999 -9999 -9999 -9999 -9999 -9999 -9999 -9999 -9999 -9999 -9999 -9999 -9999 -9999 -9999 -9999 -9999 -9999 -9999 -9999 -9999 -9999 -9999 -9999 -9999 -9999 -9999 -9999 -9999 -9999 -9999 -9999 -9999 -9999 -9999 587 588 585 596 596 600 588 595 583 588 582 578 590 593 593 597 598 603 618 621 621 632 629 634 637 636 648 647 666 664 676 687 707 711 736 796 784 818 857 885 902 920 937 920 924 959 970 977 960 938 934 931 911 902 898 909 950 1028 1080 1118 1162 1206 1320 1406 1341 1273 1256 1256 1198 1229 1295 1241 1242 1292 1251 1147 1102 1113 1112 1179 1130 1081 1101 1175 1176 1155 1151 1168 1135 1139 1172 1195 1256 1320 1435 1508 1555 1628 1655 1537 1561 1550 1421 1394 1293 1338 1416 1516 1556 1552 1639 1671 1613 1525 1595 1679 1753 1781 1858 1978 1966 1914 1879 1825 1755 1704 1789 1869 1917 1936 1996 2083 2161 2290 -9999 -9999 -9999 -9999 -9999 -9999
-9999 -9999 -9999 -9999 -9999 -9999 -9999 -9999 -9999 -9999 -9999 -9999 -9999 -9999 -9999 -9999 -9999 -9999 -9999 -9999 -9999 -9999 -9999 -9999 -9999 -9999 -9999 -9999 -9999 -9999 -9999 -9999 -9999 -9999 -9999 -9999 -9999 -9999 -9999 -9999 -9999 -9999 -9999 -9999 -9999 -9999 -9999 -9999 -9999 -9999 -9999 -9999 -9999 -9999 -9999 -9999 -9999 -9999 -9999 -9999 -9999 -9999 -9999 -9999 604 624 613 608 614 603 616 590 599 601 591 589 593 595 608 617 616 618 620 627 626 625 629 638 640 648 649 650 659 661 669 678 685 711 774 769 800 790 810 829 862 873 912 925 946 940 930 900 908 903 901 888 884 875 905 966 1017 1081 1179 1207 1256 1313 1361 1306 1203 1154 1176 1127 1199 1230 1138 1140 1244 1287 1178 1105 1067 1104 1145 1137 1087 1091 1112 1132 1160 1115 1119 1142 1147 1153 1171 1218 1287 1416 1406 1448 1553 1610 1521 1457 1475 1395 1294 1291 1389 1487 1567 1648 1655 1670 1559 1512 1573 1685 1717 1780 1842 1894 1901 1887 1832 1791 1720 1668 1744 1867 1891 1921 1934 2002 2099 2255 2335 -9999 -9999 -9999 -9999 -9999 -9999
-9999 -9999 -9999 -9999 -9999 -9999 -9999 -9999 -9999 -9999 -9999 -9999 -9999 -9999 -9999 -9999 -9999 -9999 -9999 -9999 -9999 -9999 -9999 -9999 -9999 -9999 -9999 -9999 -9999 -9999 -9999 -9999 -9999 -9999 -9999 -9999 -9999 -9999 -9999 -9999 -9999 -9999 -9999 -9999 -9999 -9999 -9999 -9999 -9999 -9999 -9999 -9999 -9999 -9999 -9999 -9999 -9999 -9999 -9999 -9999 -9999 -9999 -9999 -9999 -9999 673 625 628 635 609 651 610 605 623 603 617 596 600 636 637 621 630 633 644 651 650 648 654 664 662 662 662 691 685 661 668 668 688 734 738 753 759 793 817 818 831 860 878 903 893 893 876 877 876 873 870 863 852 897 969 1007 1121 1138 1154 1214 1310 1264 1233 1185 1095 1081 1082 1127 1161 1064 1103 1172 1214 1145 1088 1058 1098 1146 1131 1115 1057 1071 1105 1125 1089 1130 1116 1161 1213 1231 1248 1295 1316 1358 1438 1567 1552 1475 1402 1415 1314 1265 1311 1347 1450 1538 1636 1632 1571 1481 1502 1597 1684 1803 1855 1861 1803 1758 1769 1714 1655 1684 1653 1765 1840 1956 2002 2032 2101 2164 2276 2301 2194 -9999 -9999 -9999 -9999 -9999
-9999 -9999 -9999 -9999 -9999 -9999 -9999 -9999 -9999 -9999 -9999 -9999 -9999 -9999 -9999 -9999 -9999 -9999 -9999 -9999 -9999 -9999 -9999 -9999 -9999 -9999 -9999 -9999 -9999 -9999 -9999 -9999 -9999 -9999 -9999 -9999 -9999 -9999 -9999 -9999 -9999 -9999 -9999 -9999 -9999 -9999 -9999 -9999 -9999 -9999 -9999 -9999 -9999 -9999 -9999 -9999 -9999 -9999 -9999 -9999 -9999 -9999 -9999 -9999 -9999 -9999 -9999 643 636 618 670 622 607 635 613 631 602 606 638 666 629 636 643 649 669 673 684 682 688 685 700 700 721 690 669 675 667 680 706 719 725 729 765 776 774 804 822 850 855 847 859 847 850 859 841 847 835 849 905 975 1030 1053 1087 1185 1231 1304 1232 1124 1120 1083 1001 1018 1048 1098 1022 1055 1178 1223 1093 1041 1058 1098 1081 1102 1098 1073 1079 1119 1082 1080 1083 1099 1124 1128 1146 1168 1195 1230 1362 1486 1565 1497 1393 1323 1324 1246 1299 1377 1452 1491 1540 1641 1594 1487 1445 1533 1625 1729 1774 1754 1789 1762 1678 1632 1596 1600 1618 1693 1779 1862 1933 1944 2008 2130 2269 2316 2246 2162 -9999 -9999 -9999 -9999 -9999
-9999 -9999 -9999 -9999 -9999 -9999 -9999 -9999 -9999 -9999 -9999 -9999 -9999 -9999 -9999 -9999 -9999 -9999 -9999 -9999 -9999 -9999 -9999 -9999 -9999 -9999 -9999 -9999 -9999 -9999 -9999 -9999 -9999 -9999 -9999 -9999 -9999 -9999 -9999 -9999 -9999 -9999 -9999 -9999 -9999 -9999 -9999 -9999 -9999 -9999 -9999 -9999 -9999 -9999 -9999 -9999 -9999 -9999 -9999 -9999 -9999 -9999 -9999 -9999 -9999 -9999 -9999 -9999 675 637 670 651 606 636 637 643 645 614 617 626 634 640 654 664 678 694 719 722 732 740 740 739 735 709 675 689 687 689 687 689 695 708 735 742 753 767 787 803 806 803 830 819 835 841 839 830 809 859 904 966 981 1028 1041 1066 1112 1215 1193 1126 1032 1018 964 958 1031 999 1021 1058 1128 1156 1073 1030 1101 1068 1039 1109 1055 1049 1116 1103 1057 1069 1111 1173 1157 1174 1231 1237 1268 1286 1376 1481 1584 1500 1425 1343 1279 1243 1364 1408 1528 1552 1614 1576 1556 1434 1496 1606 1623 1637 1665 1656 1717 1726 1664 1566 1588 1674 1694 1751 1797 1858 1901 2010 2097 2190 2258 2270 2206 2108 -9999 -9999 -9999 -9999 -9999
-9999 -9999 -9999 -9999 -9999 -9999 -9999 -9999 -9999 -9999 -9999 -9999 -9999 -9999 -9999 -9999 -9999 -9999 -9999 -9999 -9999 -9999 -9999 -9999 -9999 -9999 -9999 -9999 -9999 -9999 -9999 -9999 -9999 -9999 -9999 -9999 -9999 -9999 -9999 -9999 -9999 -9999 -9999 -9999 -9999 -9999 -9999 -9999 -9999 -9999 -9999 -9999 -9999 -9999 -9999 -9999 -9999 -9999 -9999 -9999 -9999 -9999 -9999 -9999 -9999 -9999 -9999 -9999 -9999 662 672 622 618 633 658 648 639 632 624 627 644 652 668 698 709 724 752 762 766 786 787 769 740 715 685 691 707 752 741 703 698 698 701 714 733 734 750 763 773 789 802 796 814 817 813 809 800 842 884 915 899 922 927 956 995 1111 1138 1090 1028 933 907 898 948 924 975 1003 1074 1054 1098 1010 1071 1055 1022 1094 1027 1078 1088 1039 1077 1106 1115 1188 1219 1231 1195 1231 1341 1374 1422 1513 1589 1516 1403 1309 1259 1272 1334 1425 1527 1586 1537 1478 1498 1402 1491 1574 1522 1524 1599 1631 1669 1640 1579 1544 1617 1722 1771 1828 1903 1930 1996 2073 2110 2134 2120 2170 2216 2188 -9999 -9999 -9999 -9999 -9999
-9999 -9999 -9999 -9999 -9999 -9999 -9999 -9999 -9999 -9999 -9999 -9999 -9999 -9999 -9999 -9999 -9999 -9999 -9999 -9999 -9999 -9999 -9999 -9999 -9999 -9999 -9999 -9999 -9999 -9999 -9999 -9999 -9999 -9999 -9999 -9999 -9999 -9999 -9999 -9999 -9999 -9999 -9999 -9999 -9999 -9999 -9999 -9999 -9999 -9999 -9999 -9999 -9999 -9999 -9999 -9999 -9999 -9999 -9999 -9999 -9999 -9999 -9999 -9999 -9999 -9999 -9999 -9999 -9999 -9999 692 653 657 649 674 665 647 675 641 641 643 651 663 690 745 758 790 805 797 817 808 791 770 744 696 690 702 782 781 740 722 729 720 708 717 729 727 732 747 766 768 785 779 786 773 776 784 796 817 808 811 848 825 893 929 1048 1079 976 939 918 970 987 939 947 908 918 991 1027 1024 1002 1079 1071 1021 999 1001 1009 1026 1069 1112 1185 1212 1204 1185 1126 1149 1268 1285 1269 1322 1451 1498 1494 1417 1288 1218 1289 1397 1460 1539 1511 1425 1426 1408 1394 1454 1489 1441 1477 1529 1575 1585 1538 1540 1584 1647 1747 1819 1889 1960 2031 2048 2000 2000 1995 2027 2109 2186 2257 -9999 -9999 -9999 -9999 -9999
-9999 -9999 -9999 -9999 -9999 -9999 -9999 -9999 -9999 -9999 -9999 -9999 -9999 -9999 -9999 -9999 -9999 -9999 -9999 -9999 -9999 -9999 -9999 -9999 -9999 -9999 -9999 -9999 -9999 -9999 -9999 -9999 -9999 -9999 -9999 -9999 -9999 -9999 -9999 -9999 -9999 -9999 -9999 -9999 -9999 -9999 -9999 -9999 -9999 -9999 -9999 -9999 -9999 -9999 -9999 -9999 -9999 -9999 -9999 -9999 -9999 -9999 -9999 -9999 -9999 -9999 -9999 -9999 -9999 -9999 -9999 670 675 656 677 689 664 684 643 657 661 669 667 687 747 767 808 845 842 847 840 820 793 749 719 698 702 754 742 731 745 766 767 762 753 746 756 747 739 744 748 758 765 770 790 791 819 839 863 898 878 812 833 890 945 1059 993 951 893 921 1036 1065 1032 1022 987 957 925 946 969 1017 1034 1040 1053 993 1055 1075 1121 1152 1133 1127 1135 1104 1087 1114 1192 1186 1195 1227 1327 1365 1432 1448 1368 1286 1226 1291 1380 1485 1477 1427 1365 1330 1337 1332 1359 1398 1433 1433 1444 1468 1484 1526 1604 1650 1706 1723 1785 1848 1963 1996 1945 1902 1877 1945 1981 2035 2130 2203 -9999 -9999 -9999 -9999 -9999
-9999 -9999 -9999 -9999 -9999 -9999 -9999 -9999 -9999 -9999 -9999 -9999 -9999 -9999 -9999 -9999 -9999 -9999 -9999 -9999 -9999 -9999 -9999 -9999 -9999 -9999 -9999 -9999 -9999 -9999 -9999 -9999 -9999 -9999 -9999 -9999 -9999 -9999 -9999 -9999 -9999 -9999 -9999 -9999 -9999 -9999 -9999 -9999 -9999 -9999 -9999 -9999 -9999 -9999 -9999 -9999 -9999 -9999 -9999 -9999 -9999 -9999 -9999 -9999 -9999 -9999 -9999 -9999 -9999 -9999 -9999 -9999 684 663 701 713 679 657 645 662 688 689 693 691 739 767 824 864 894 881 875 840 815 782 737 714 713 714 737 744 742 772 810 785 783 781 795 781 767 791 770 765 811 823 827 850 861 914 897 980 943 841 847 858 884 965 906 873 953 988 1016 1059 1135 1101 1003 965 1010 955 941 953 990 987 974 977 988 1022 1072 1058 1076 1065 1052 1100 1133 1201 1204 1136 1207 1220 1289 1282 1410 1409 1336 1243 1200 1283 1411 1430 1428 1359 1290 1355 1393 1424 1442 1420 1528 1491 1530 1581 1585 1631 1695 1764 1752 1835 1866 1905 1910 1874 1828 1809 1833 1899 1949 2080 2124 2222 2322 -9999 -9999 -9999 -9999
-9999 -9999 -9999 -9999 -9999 -9999 -9999 -9999 -9999 -9999 -9999 -9999 -9999 -9999 -9999 -9999 -9999 -9999 -9999 -9999 -9999 -9999 -9999 -9999 -9999 -9999 -9999 -9999 -9999 -9999 -9999 -9999 -9999 -9999 -9999 -9999 -9999 -9999 -9999 -9999 -9999 -9999 -9999 -9999 -9999 -9999 -9999 -9999 -9999 -9999 -9999 -9999 -9999 -9999 -9999 -9999 -9999 -9999 -9999 -9999 -9999 -9999 -9999 -9999 -9999 -9999 -9999 -9999 -9999 -9999 -9999 -9999 -9999 -9999 -9999 693 687 656 674 693 716 710 721 700 711 752 809 866 917 926 908 864 824 787 755 736 750 758 783 781 752 771 819 811 802 828 820 816 800 830 773 797 847 859 848 895 924 950 940 1028 967 910 908 852 870 863 887 945 1028 1091 1044 1119 1164 1058 1012 1011 1031 1040 985 948 972 960 976 1013 993 989 994 998 1011 1015 1024 1061 1104 1123 1101 1137 1171 1217 1221 1267 1343 1337 1263 1188 1227 1325 1389 1330 1341 1293 1305 1403 1513 1550 1498 1453 1556 1526 1488 1509 1525 1626 1740 1780 1759 1806 1789 1820 1788 1783 1784 1870 1897 1876 1964 2093 2174 2209 2325 -9999 -9999 -9999 -9999
-9999 -9999 -9999 -9999 -9999 -9999 -9999 -9999 -9999 -9999 -9999 -9999 -9999 -9999 -9999 -9999 -9999 -9999 -9999 -9999 -9999 -9999 -9999 -9999 -9999 -9999 -9999 -9999 -9999 -9999 -9999 -9999 -9999 -9999 -9999 -9999 -9999 -9999 -9999 -9999 -9999 -9999 -9999 -9999 -9999 -9999 -9999 -9999 -9999 -9999 -9999 -9999 -9999 -9999 -9999 -9999 -9999 -9999 -9999 -9999 -9999 -9999 -9999 -9999 -9999 -9999 -9999 -9999 -9999 -9999 -9999 -9999 -9999 -9999 -9999 -9999 686 670 692 717 743 726 744 726 721 748 805 859 909 940 921 869 833 807 762 794 801 803 821 792 771 770 830 840 835 870 852 843 842 827 795 817 864 873 867 904 952 970 986 1085 1031 1022 935 884 873 880 956 1028 1125 1152 1073 1116 1183 1092 1062 1020 1062 1110 1008 953 957 962 1017 1001 1045 1063 1069 1082 1067 1050 1066 1031 1037 1061 1077 1095 1102 1194 1166 1239 1219 1225 1211 1220 1278 1368 1295 1258 1261 1300 1379 1443 1608 1629 1537 1486 1482 1572 1544 1578 1599 1544 1604 1657 1650 1668 1669 1711 1722 1768 1867 1942 1977 1964 1971 2098 2163 2226 2316 2337 -9999 -9999 -9999
-9999 -9999 -9999 -9999 -9999 -9999 -9999 -9999 -9999 -9999 -9999 -9999 -9999 -9999 -9999 -9999 -9999 -9999 -9999 -9999 -9999 -9999 -9999 -9999 -9999 -9999 -9999 -9999 -9999 -9999 -9999 -9999 -9999 -9999 -9999 -9999 -9999 -9999 -9999 -9999 -9999 -9999 -9999 -9999 -9999 -9999 -9999 -9999 -9999 -9999 -9999 -9999 -9999 -9999 -9999 -9999 -9999 -9999 -9999 -9999 -9999 -9999 -9999 -9999 -9999 -9999 -9999 -9999 -9999 -9999 -9999 -9999 -9999 -9999 -9999 -9999 -9999 697 725 745 761 758 757 744 756 773 787 852 907 942 912 882 857 850 806 819 831 831 843 815 798 769 823 859 862 910 872 872 865 826 817 853 861 871 906 930 961 1003 1045 1172 1132 1047 993 933 924 1002 1048 1101 1210 1142 1095 1094 1161 1072 1048 1049 1130 1159 1082 1055 1031 989 984 1080 1032 1046 1111 1170 1141 1141 1142 1072 1083 1056 1060 1069 1087 1144 1179 1148 1121 1150 1167 1238 1268 1331 1238 1301 1370 1387 1450 1471 1698 1679 1596 1497 1550 1650 1626 1632 1656 1672 1612 1612 1658 1711 1747 1712 1778 1836 1889 1974 2032 2049 2091 2117 2153 2260 2305 2375 -9999 -9999 -9999
-9999 -9999 -9999 -9999 -9999 -9999 -9999 -9999 -9999 -9999 -9999 -9999 -9999 -9999 -9999 -9999 -9999 -9999 -9999 -9999 -9999 -9999 -9999 -9999 -9999 -9999 -9999 -9999 -9999 -9999 -9999 -9999 -9999 -9999 -9999 -9999 -9999 -9999 -9999 -9999 -9999 -9999 -9999 -9999 -9999 -9999 -9999 -9999 -9999 -9999 -9999 -9999 -9999 -9999 -9999 -9999 -9999 -9999 -9999 -9999 -9999 -9999 -9999 -9999 -9999 -9999 -9999 -9999 -9999 -9999 -9999 -9999 -9999 -9999 -9999 -9999 -9999 -9999 754 783 793 780 779 761 796 818 843 858 903 935 941 923 917 888 835 834 859 869 878 861 828 788 801 842 880 918 901 903 872 842 848 884 900 885 904 979 989 1031 1079 1235 1184 1092 983 1009 1021 1131 1184 1210 1240 1168 1163 1138 1147 1117 1073 1099 1149 1218 1115 1060 1031 1012 982 1017 1119 1064 1054 1085 1119 1150 1157 1150 1149 1127 1157 1139 1079 1106 1113 1140 1191 1155 1178 1259 1285 1304 1215 1324 1387 1486 1532 1650 1741 1710 1607 1501 1560 1670 1679 1701 1735 1786 1723 1677 1698 1780 1845 1764 1764 1843 1912 1974 2020 2133 2180 2229 2264 2294 2370 2407 -9999 -9999 -9999
-9999 -9999 -9999 -9999 -9999 -9999 -9999 -9999 -9999 -9999 -9999 -9999 -9999 -9999 -9999 -9999 -9999 -9999 -9999 -9999 -9999 -9999 -9999 -9999 -9999 -9999 -9999 -9999 -9999 -9999 -9999 -9999 -9999 -9999 -9999 -9999 -9999 -9999 -9999 -9999 -9999 -9999 -9999 -9999 -9999 -9999 -9999 -9999 -9999 -9999 -9999 -9999 -9999 -9999 -9999 -9999 -9999 -9999 -9999 -9999 -9999 -9999 -9999 -9999 -9999 -9999 -9999 -9999 -9999 -9999 -9999 -9999 -9999 -9999 -9999 -9999 -9999 -9999 -9999 798 836 828 798 792 822 847 878 898 924 947 975 966 928 897 856 865 893 913 917 902 847 817 798 838 880 922 930 926 886 861 869 913 916 914 938 1020 1038 1061 1157 1271 1179 1084 1084 1143 1161 1255 1275 1323 1295 1252 1255 1187 1184 1192 1122 1148 1225 1223 1116 1058 1006 989 993 1065 1121 1120 1080 1051 1082 1073 1082 1120 1141 1213 1217 1209 1143 1093 1110 1203 1282 1239 1163 1174 1190 1215 1198 1299 1385 1485 1609 1710 1701 1639 1581 1519 1536 1604 1639 1774 1824 1863 1788 1773 1804 1804 1905 1851 1791 1804 1851 1913 1986 2113 2217 2298 2342 2370 2397 -9999 -9999 -9999 -9999
-9999 -9999 -9999 -9999 -9999 -9999 -9999 -9999 -9999 -9999 -9999 -9999 -9999 -9999 -9999 -9999 -9999 -9999 -9999 -9999 -9999 -9999 -9999 -9999 -9999 -9999 -9999 -9999 -9999 -9999 -9999 -9999 -9999 -9999 -9999 -9999 -9999 -9999 -9999 -9999 -9999 -9999 -9999 -9999 -9999 -9999 -9999 -9999 -9999 -9999 -9999 -9999 -9999 -9999 -9999 -9999 -9999 -9999 -9999 -9999 -9999 -9999 -9999 -9999 -9999 -9999 -9999 -9999 -9999 -9999 -9999 -9999 -9999 -9999 -9999 -9999 -9999 -9999 -9999 -9999 855 846 807 803 837 852 888 910 936 957 984 969 940 899 877 894 916 939 933 922 863 830 812 828 869 908 937 933 895 874 875 914 925 924 956 1044 1052 1086 1174 1266 1175 1102 1137 1186 1198 1301 1326 1368 1343 1297 1253 1194 1224 1230 1162 1182 1242 1182 1097 1064 1009 1006 1019 1023 1100 1147 1114 1073 1123 1112 1102 1102 1108 1202 1264 1253 1199 1138 1123 1251 1331 1283 1212 1187 1167 1185 1221 1322 1423 1484 1600 1711 1688 1603 1538 1559 1582 1564 1618 1745 1796 1863 1840 1827 1859 1839 1908 1888 1825 1861 1848 1897 1970 2082 2196 2304 2377 2405 2425 -9999 -9999 -9999 -9999
-9999 -9999 -9999 -9999 -9999 -9999 -9999 -9999 -9999 -9999 -9999 -9999 -9999 -9999 -9999 -9999 -9999 -9999 -9999 -9999 -9999 -9999 -9999 -9999 -9999 -9999 -9999 -9999 -9999 -9999 -9999 -9999 -9999 -9999 -9999 -9999 -9999 -9999 -9999 -9999 -9999 -9999 -9999 -9999 -9999 -9999 -9999 -9999 -9999 -9999 -9999 -9999 -9999 -9999 -9999 -9999 -9999 -9999 -9999 -9999 -9999 -9999 -9999 -9999 -9999 -9999 -9999 -9999 -9999 -9999 -9999 -9999 -9999 -9999 -9999 -9999 -9999 -9999 -9999 -9999 -9999 871 837 823 847 853 884 922 950 971 1001 991 956 928 941 941 949 975 963 937 900 858 853 824 870 884 930 934 912 889 888 922 956 962 997 1033 1093 1154 1206 1330 1236 1214 1236 1261 1287 1358 1430 1439 1402 1304 1234 1260 1284 1298 1279 1259 1164 1103 1052 1028 1024 1029 1102 1063 1113 1141 1148 1127 1155 1142 1127 1173 1185 1194 1293 1319 1258 1152 1122 1190 1264 1345 1301 1295 1252 1242 1262 1325 1414 1519 1595 1706 1631 1555 1596 1591 1653 1661 1654 1677 1741 1842 1883 1913 1929 1900 1923 1885 1893 1935 1954 1920 1923 1984 2101 2262 2405 2464 -9999 -9999 -9999 -9999 -9999
-9999 -9999 -9999 -9999 -9999 -9999 -9999 -9999 -9999 -9999 -9999 -9999 -9999 -9999 -9999 -9999 -9999 -9999 -9999 -9999 -9999 -9999 -9999 -9999 -9999 -9999 -9999 -9999 -9999 -9999 -9999 -9999 -9999 -9999 -9999 -9999 -9999 -9999 -9999 -9999 -9999 -9999 -9999 -9999 -9999 -9999 -9999 -9999 -9999 -9999 -9999 -9999 -9999 -9999 -9999 -9999 -9999 -9999 -9999 -9999 -9999 -9999 -9999 -9999 -9999 -9999 -9999 -9999 -9999 -9999 -9999 -9999 -9999 -9999 -9999 -9999 -9999 -9999 -9999 -9999 -9999 882 863 850 862 869 886 922 961 996 1031 1000 983 970 993 972 981 1013 1001 960 936 902 884 855 837 856 882 905 930 926 918 933 963 982 1035 1064 1130 1185 1266 1384 1380 1324 1317 1337 1358 1454 1427 1396 1345 1268 1330 1349 1350 1412 1328 1270 1186 1096 1054 1072 1030 1000 1075 1155 1156 1208 1191 1146 1176 1145 1191 1216 1296 1282 1256 1320 1220 1184 1158 1150 1257 1322 1400 1391 1357 1338 1394 1385 1436 1487 1600 1690 1602 1640 1698 1651 1722 1744 1762 1688 1716 1782 1859 1915 1985 1973 1975 1963 1961 1978 2009 2012 1949 2003 2132 2185 2405 2445 -9999 -9999 -9999 -9999 -9999
-9999 -9999 -9999 -9999 -9999 -9999 -9999 -9999 -9999 -9999 -9999 -9999 -9999 -9999 -9999 -9999 -9999 -9999 -9999 -9999 -9999 -9999 -9999 -9999 -9999 -9999 -9999 -9999 -9999 -9999 -9999 -9999 -9999 -9999 -9999 -9999 -9999 -9999 -9999 -9999 -9999 -9999 -9999 -9999 -9999 -9999 -9999 -9999 -9999 -9999 -9999 -9999 -9999 -9999 -9999 -9999 -9999 -9999 -9999 -9999 -9999 -9999 -9999 -9999 -9999 -9999 -9999 -9999 -9999 -9999 -9999 -9999 -9999 -9999 -9999 -9999 -9999 -9999 -9999 -9999 -9999 897 880 883 874 877 892 924 962 1038 1040 1034 1016 1015 1036 1039 1040 1050 1037 1011 966 931 925 892 856 849 868 885 923 932 951 966 986 1015 1072 1105 1153 1190 1286 1376 1481 1424 1404 1422 1452 1447 1393 1333 1324 1324 1391 1425 1439 1408 1289 1254 1160 1076 1049 1030 1015 1052 1059 1078 1123 1177 1184 1153 1231 1195 1242 1273 1317 1410 1343 1351 1261 1220 1157 1159 1232 1249 1327 1386 1378 1424 1469 1491 1506 1511 1541 1627 1645 1624 1736 1784 1779 1824 1838 1759 1730 1773 1816 1892 1976 2044 2051 2028 2024 2046 2075 2082 2029 2022 2152 2188 2391 2336 -9999 -9999 -9999 -9999 -9999
-9999 -9999 -9999 -9999 -9999 -9999 -9999 -9999 -9999 -9999 -9999 -9999 -9999 -9999 -9999 -9999 -9999 -9999 -9999 -9999 -9999 -9999 -9999 -9999 -9999 -9999 -9999 -9999 -9999 -9999 -9999 -9999 -9999 -9999 -9999 -9999 -9999 -9999 -9999 -9999 -9999 -9999 -9999 -9999 -9999 -9999 -9999 -9999 -9999 -9999 -9999 -9999 -9999 -9999 -9999 -9999 -9999 -9999 -9999 -9999 -9999 -9999 -9999 -9999 -9999 -9999 -9999 -9999 -9999 -9999 -9999 -9999 -9999 -9999 -9999 -9999 -9999 -9999 -9999 -9999 -9999 909 902 908 896 896 902 924 1007 1063 1057 1053 1040 1068 1099 1082 1083 1089 1072 1036 998 958 952 924 897 859 859 869 885 898 914 956 1003 1034 1090 1136 1181 1235 1289 1396 1468 1529 1515 1476 1457 1437 1378 1385 1356 1417 1452 1493 1471 1342 1235 1192 1170 1067 1080 1042 1019 1057 1064 1130 1153 1165 1214 1198 1246 1221 1253 1355 1358 1458 1405 1397 1339 1280 1170 1140 1149 1194 1226 1269 1274 1328 1364 1399 1393 1440 1505 1615 1696 1621 1695 1744 1807 1878 1865 1840 1816 1815 1860 1946 2012 2077 2133 2103 2112 2126 2151 2147 2084 2023 2146 2273 2361 2266 -9999 -9999 -9999 -9999 -9999
-9999 -9999 -9999 -9999 -9999 -9999 -9999 -9999 -9999 -9999 -9999 -9999 -9999 -9999 -9999 -9999 -9999 -9999 -9999 -9999 -9999 -9999 -9999 -9999 -9999 -9999 -9999 -9999 -9999 -9999 -9999 -9999 -9999 -9999 -9999 -9999 -9999 -9999 -9999 -9999 -9999 -9999 -9999 -9999 -9999 -9999 -9999 -9999 -9999 -9999 -9999 -9999 -9999 -9999 -9999 -9999 -9999 -9999 -9999 -9999 -9999 -9999 -9999 -9999 -9999 -9999 -9999 -9999 -9999 -9999 -9999 -9999 -9999 -9999 -9999 -9999 -9999 -9999 -9999 -9999 -9999 -9999 -9999 -9999 908 914 918 953 1029 1078 1108 1110 1119 1113 1096 1093 1099 1114 1136 1059 1027 984 973 952 917 887 900 898 900 899 907 938 989 1028 1080 1142 1203 1240 1322 1439 1490 1553 1484 1403 1375 1355 1362 1418 1439 1488 1479 1422 1425 1326 1202 1147 1111 1101 1113 1062 1031 1070 1082 1124 1118 1187 1242 1272 1288 1289 1280 1335 1398 1461 1491 1451 1429 1347 1286 1243 1162 1183 1250 1235 1239 1260 1272 1329 1418 1496 1578 1654 1717 1711 1703 1727 1728 1812 1871 1914 1914 1886 1926 2018 2073 2134 2197 2177 2163 2189 2238 2177 2139 2065 2133 2232 2345 2259 -9999 -9999 -9999 -9999 -9999
-9999 -9999 -9999 -9999 -9999 -9999 -9999 -9999 -9999 -9999 -9999 -9999 -9999 -9999 -9999 -9999 -9999 -9999 -9999 -9999 -9999 -9999 -9999 -9999 -9999 -9999 -9999 -9999 -9999 -9999 -9999 -9999 -9999 -9999 -9999 -9999 -9999 -9999 -9999 -9999 -9999 -9999 -9999 -9999 -9999 -9999 -9999 -9999 -9999 -9999 -9999 -9999 -9999 -9999 -9999 -9999 -9999 -9999 -9999 -9999 -9999 -9999 -9999 -9999 -9999 -9999 -9999 -9999 -9999 -9999 -9999 -9999 -9999 -9999 -9999 -9999 -9999 -9999 -9999 -9999 -9999 -9999 -9999 -9999 -9999 -9999 954 1006 1046 1092 1154 1141 1111 1099 1089 1099 1103 1121 1164 1104 1048 1022 1006 986 937 908 923 943 937 931 942 932 995 1020 1057 1099 1163 1241 1383 1426 1413 1491 1520 1479 1442 1347 1345 1423 1509 1440 1398 1330 1309 1315 1213 1191 1096 1094 1049 1043 1085 1053 1126 1153 1139 1208 1242 1338 1397 1376 1367 1341 1390 1460 1516 1512 1509 1423 1333 1264 1191 1182 1303 1319 1321 1315 1297 1359 1365 1445 1510 1602 1710 1809 1802 1749 1776 1799 1856 1893 1904 1965 2012 2069 2115 2239 2278 2271 2258 2230 2281 2249 2226 2130 2160 2278 2405 2371 -9999 -9999 -9999 -9999 -9999
-9999 -9999 -9999 -9999 -9999 -9999 -9999 -9999 -9999 -9999 -9999 -9999 -9999 -9999 -9999 -9999 -9999 -9999 -9999 -9999 -9999 -9999 -9999 -9999 -9999 -9999 -9999 -9999 -9999 -9999 -9999 -9999 -9999 -9999 -9999 -9999 -9999 -9999 -9999 -9999 -9999 -9999 -9999 -9999 -9999 -9999 -9999 -9999 -9999 -9999 -9999 -9999 -9999 -9999 -9999 -9999 -9999 -9999 -9999 -9999 -9999 -9999 -9999 -9999 -9999 -9999 -9999 -9999 -9999 -9999 -9999 -9999 -9999 -9999 -9999 -9999 -9999 -9999 -9999 -9999 -9999 -9999 -9999 -9999 -9999 -9999 -9999 1021 1072 1151 1135 1098 1079 1076 1084 1094 1103 1117 1171 1132 1087 1073 1044 1003 969 935 949 977 979 966 974 949 980 990 1039 1081 1146 1266 1295 1330 1322 1418 1422 1392 1377 1320 1368 1429 1488 1349 1283 1272 1192 1237 1187 1144 1095 1094 1081 1051 1069 1080 1100 1198 1185 1226 1280 1288 1377 1451 1410 1368 1371 1399 1452 1547 1512 1385 1329 1295 1201 1198 1309 1391 1410 1415 1344 1408 1477 1546 1588 1592 1674 1856 1860 1769 1830 1822 1841 1844 1872 1952 2024 2075 2168 2283 2360 2353 2340 2327 2325 2309 2282 2251 2228 2316 2441 -9999 -9999 -9999 -9999 -9999 -9999
-9999 -9999 -9999 -9999 -9999 -9999 -9999 -9999 -9999 -9999 -9999 -9999 -9999 -9999 -9999 -9999 -9999 -9999 -9999 -9999 -9999 -9999 -9999 -9999 -9999 -9999 -9999 -9999 -9999 -9999 -9999 -9999 -9999 -9999 -9999 -9999 -9999 -9999 -9999 -9999 -9999 -9999 -9999 -9999 -9999 -9999 -9999 -9999 -9999 -9999 -9999 -9999 -9999 -9999 -9999 -9999 -9999 -9999 -9999 -9999 -9999 -9999 -9999 -9999 -9999 -9999 -9999 -9999 -9999 -9999 -9999 -9999 -9999 -9999 -9999 -9999 -9999 -9999 -9999 -9999 -9999 -9999 -9999 -9999 -9999 -9999 -9999 -9999 -9999 -9999 -9999 -9999 -9999 -9999 -9999 -9999 -9999 -9999 -9999 1176 1133 1113 1071 1032 991 973 999 1010 1010 1001 996 989 977 981 1028 1062 1117 1156 1185 1228 1289 1330 1325 1311 1319 1331 1413 1471 1468 1332 1224 1200 1169 1144 1171 1139 1084 1068 1093 1078 1110 1117 1085 1138 1169 1181 1239 1264 1334 1409 1481 1436 1424 1409 1468 1519 1447 1392 1307 1267 1228 1190 1274 1324 1368 1442 1392 1433 1478 1548 1663 1674 1744 1863 1839 1813 1880 1889 1879 1913 1908 1953 2030 2115 2203 2314 2403 2437 2444 2402 2384 2418 2397 2348 2321 2395 2427 -9999 -9999 -9999 -9999 -9999 -9999
-9999 -9999 -9999 -9999 -9999 -9999 -9999 -9999 -9999 -9999 -9999 -9999 -9999 -9999 -9999 -9999 -9999 -9999 -9999 -9999 -9999 -9999 -9999 -9999 -9999 -9999 -9999 -9999 -9999 -9999 -9999 -9999 -9999 -9999 -9999 -9999 -9999 -9999 -9999 -9999 -9999 -9999 -9999 -9999 -9999 -9999 -9999 -9999 -9999 -9999 -9999 -9999 -9999 -9999 -9999 -9999 -9999 -9999 -9999 -9999 -9999 -9999 -9999 -9999 -9999 -9999 -9999 -9999 -9999 -9999 -9999 -9999 -9999 -9999 -9999 -9999 -9999 -9999 -9999 -9999 -9999 -9999 -9999 -9999 -9999 -9999 -9999 -9999 -9999 -9999 -9999 -9999 -9999 -9999 -9999 -9999 -9999 -9999 -9999 1239 1173 1150 1106 1057 1019 1016 1045 1059 1050 1026 1019 1023 990 1010 1090 1131 1203 1197 1188 1200 1216 1236 1265 1290 1302 1338 1389 1389 1419 1305 1240 1178 1148 1112 1100 1093 1114 1105 1091 1068 1089 1132 1134 1124 1142 1191 1191 1254 1338 1398 1508 1515 1514 1449 1509 1550 1450 1353 1270 1212 1212 1266 1272 1318 1366 1481 1488 1558 1585 1553 1668 1757 1827 1878 1830 1872 1942 1909 1921 1965 1946 1955 2008 2055 2153 2266 2342 2420 2519 2475 2439 2472 2466 2367 2413 2409 2339 -9999 -9999 -9999 -9999 -9999 -9999
-9999 -9999 -9999 -9999 -9999 -9999 -9999 -9999 -9999 -9999 -9999 -9999 -9999 -9999 -9999 -9999 -9999 -9999 -9999 -9999 -9999 -9999 -9999 -9999 -9999 -9999 -9999 -9999 -9999 -9999 -9999 -9999 -9999 -9999 -9999 -9999 -9999 -9999 -9999 -9999 -9999 -9999 -9999 -9999 -9999 -9999 -9999 -9999 -9999 -9999 -9999 -9999 -9999 -9999 -9999 -9999 -9999 -9999 -9999 -9999 -9999 -9999 -9999 -9999 -9999 -9999 -9999 -9999 -9999 -9999 -9999 -9999 -9999 -9999 -9999 -9999 -9999 -9999 -9999 -9999 -9999 -9999 -9999 -9999 -9999 -9999 -9999 -9999 -9999 -9999 -9999 -9999 -9999 -9999 -9999 -9999 -9999 -9999 -9999 1196 1197 1182 1133 1094 1052 1040 1069 1086 1079 1054 1045 1007 1016 1028 1096 1182 1257 1299 1271 1275 1297 1341 1285 1300 1316 1305 1356 1441 1413 1354 1296 1251 1153 1160 1168 1157 1138 1106 1083 1074 1092 1090 1138 1192 1233 1238 1207 1232 1268 1380 1458 1548 1540 1501 1513 1552 1452 1343 1248 1288 1310 1318 1361 1329 1347 1463 1578 1622 1677 1638 1663 1725 1845 1901 1862 1880 1938 1947 1963 2025 2046 2040 2055 2156 2234 2292 2372 2469 2548 2517 2493 2519 2525 2450 2444 -9999 -9999 -9999 -9999 -9999 -9999 -9999 -9999
-9999 -9999 -9999 -9999 -9999 -9999 -9999 -9999 -9999 -9999 -9999 -9999 -9999 -9999 -9999 -9999 -9999 -9999 -9999 -9999 -9999 -9999 -9999 -9999 -9999 -9999 -9999 -9999 -9999 -9999 -9999 -9999 -9999 -9999 -9999 -9999 -9999 -9999 -9999 -9999 -9999 -9999 -9999 -9999 -9999 -9999 -9999 -9999 -9999 -9999 -9999 -9999 -9999 -9999 -9999 -9999 -9999 -9999 -9999 -9999 -9999 -9999 -9999 -9999 -9999 -9999 -9999 -9999 -9999 -9999 -9999 -9999 -9999 -9999 -9999 -9999 -9999 -9999 -9999 -9999 -9999 -9999 -9999 -9999 -9999 -9999 -9999 -9999 -9999 -9999 -9999 -9999 -9999 -9999 -9999 -9999 -9999 -9999 -9999 1190 1207 1196 1149 1126 1093 1085 1103 1113 1110 1074 1054 1035 1033 1052 1087 1172 1272 1374 1309 1360 1367 1366 1330 1329 1360 1338 1421 1485 1469 1332 1314 1252 1191 1173 1121 1110 1101 1104 1095 1129 1109 1113 1103 1153 1193 1173 1234 1315 1350 1371 1440 1479 1520 1562 1559 1560 1469 1377 1287 1252 1268 1341 1403 1410 1406 1464 1606 1719 1782 1732 1799 1842 1868 1903 1942 1940 1935 1959 2010 2090 2114 2138 2115 2198 2256 2328 2366 2432 2555 2579 2539 2585 -9999 -9999 -9999 -9999 -9999 -9999 -9999 -9999 -9999 -9999 -9999
-9999 -9999 -9999 -9999 -9999 -9999 -9999 -9999 -9999 -9999 -9999 -9999 -9999 -9999 -9999 -9999 -9999 -9999 -9999 -9999 -9999 -9999 -9999 -9999 -9999 -9999 -9999 -9999 -9999 -9999 -9999 -9999 -9999 -9999 -9999 -9999 -9999 -9999 -9999 -9999 -9999 -9999 -9999 -9999 -9999 -9999 -9999 -9999 -9999 -9999 -9999 -9999 -9999 -9999 -9999 -9999 -9999 -9999 -9999 -9999 -9999 -9999 -9999 -9999 -9999 -9999 -9999 -9999 -9999 -9999 -9999 -9999 -9999 -9999 -9999 -9999 -9999 -9999 -9999 -9999 -9999 -9999 -9999 -9999 -9999 -9999 -9999 -9999 -9999 -9999 -9999 -9999 -9999 -9999 -9999 -9999 -9999 -9999 -9999 -9999 1212 1207 1175 1144 1107 1105 1126 1134 1118 1089 1061 1047 1052 1071 1099 1157 1269 1382 1346 1399 1392 1361 1350 1361 1389 1334 1413 1443 1455 1341 1264 1230 1208 1147 1151 1143 1103 1122 1097 1101 1133 1120 1118 1182 1155 1171 1236 1302 1350 1388 1443 1479 1515 1607 1593 1550 1459 1402 1321 1273 1285 1367 1399 1454 1458 1498 1620 1745 1823 1800 1842 1833 1811 1843 1976 1951 1944 1967 2000 2082 2115 2180 2156 2208 2278 2359 2404 2447 2541 2598 2576 2610 -9999 -9999 -9999 -9999 -9999 -9999 -9999 -9999 -9999 -9999 -9999
-9999 -9999 -9999 -9999 -9999 -9999 -9999 -9999 -9999 -9999 -9999 -9999 -9999 -9999 -9999 -9999 -9999 -9999 -9999 -9999 -9999 -9999 -9999 -9999 -9999 -9999 -9999 -9999 -9999 -9999 -9999 -9999 -9999 -9999 -9999 -9999 -9999 -9999 -9999 -9999 -9999 -9999 -9999 -9999 -9999 -9999 -9999 -9999 -9999 -9999 -9999 -9999 -9999 -9999 -9999 -9999 -9999 -9999 -9999 -9999 -9999 -9999 -9999 -9999 -9999 -9999 -9999 -9999 -9999 -9999 -9999 -9999 -9999 -9999 -9999 -9999 -9999 -9999 -9999 -9999 -9999 -9999 -9999 -9999 -9999 -9999 -9999 -9999 -9999 -9999 -9999 -9999 -9999 -9999 -9999 -9999 -9999 -9999 -9999 -9999 -9999 1226 1205 1172 1140 1154 1150 1168 1149 1123 1083 1077 1087 1106 1162 1160 1237 1332 1394 1385 1426 1371 1371 1443 1429 1365 1386 1423 1400 1298 1211 1179 1160 1145 1119 1113 1122 1115 1134 1101 1153 1150 1122 1141 1171 1206 1213 1277 1367 1385 1455 1503 1541 1656 1683 1560 1491 1467 1424 1315 1265 1313 1356 1414 1456 1554 1673 1810 1858 1851 1820 1745 1696 1858 1968 1993 1999 2026 2059 2077 2124 2237 2287 2274 2340 2436 2460 2473 2548 2624 2642 -9999 -9999 -9999 -9999 -9999 -9999 -9999 -9999 -9999 -9999 -9999 -9999
-9999 -9999 -9999 -9999 -9999 -9999 -9999 -9999 -9999 -9999 -9999 -9999 -9999 -9999 -9999 -9999 -9999 -9999 -9999 -9999 -9999 -9999 -9999 -9999 -9999 -9999 -9999 -9999 -9999 -9999 -9999 -9999 -9999 -9999 -9999 -9999 -9999 -9999 -9999 -9999 -9999 -9999 -9999 -9999 -9999 -9999 -9999 -9999 -9999 -9999 -9999 -9999 -9999 -9999 -9999 -9999 -9999 -9999 -9999 -9999 -9999 -9999 -9999 -9999 -9999 -9999 -9999 -9999 -9999 -9999 -9999 -9999 -9999 -9999 -9999 -9999 -9999 -9999 -9999 -9999 -9999 -9999 -9999 -9999 -9999 -9999 -9999 -9999 -9999 -9999 -9999 -9999 -9999 -9999 -9999 -9999 -9999 -9999 -9999 -9999 -9999 -9999 1226 1192 1183 1189 1194 1199 1194 1161 1098 1101 1113 1135 1202 1212 1225 1305 1322 1389 1414 1372 1419 1392 1386 1384 1439 1499 1449 1361 1299 1229 1189 1178 1141 1124 1142 1178 1128 1149 1159 1178 1158 1217 1251 1297 1291 1335 1360 1444 1437 1478 1504 1603 1716 1609 1537 1493 1409 1326 1278 1354 1418 1468 1493 1558 1751 1780 1766 1742 1727 1643 1671 1793 1870 2012 2070 2078 2126 2148 2163 2227 2336 2364 2429 2519 2545 2573 2591 2644 -9999 -9999 -9999 -9999 -9999 -9999 -9999 -9999 -9999 -9999 -9999 -9999 -9999
-9999 -9999 -9999 -9999 -9999 -9999 -9999 -9999 -9999 -9999 -9999 -9999 -9999 -9999 -9999 -9999 -9999 -9999 -9999 -9999 -9999 -9999 -9999 -9999 -9999 -9999 -9999 -9999 -9999 -9999 -9999 -9999 -9999 -9999 -9999 -9999 -9999 -9999 -9999 -9999 -9999 -9999 -9999 -9999 -9999 -9999 -9999 -9999 -9999 -9999 -9999 -9999 -9999 -9999 -9999 -9999 -9999 -9999 -9999 -9999 -9999 -9999 -9999 -9999 -9999 -9999 -9999 -9999 -9999 -9999 -9999 -9999 -9999 -9999 -9999 -9999 -9999 -9999 -9999 -9999 -9999 -9999 -9999 -9999 -9999 -9999 -9999 -9999 -9999 -9999 -9999 -9999 -9999 -9999 -9999 -9999 -9999 -9999 -9999 -9999 -9999 -9999 -9999 1216 1211 1220 1234 1227 1222 1179 1155 1137 1164 1180 1236 1279 1258 1322 1329 1332 1356 1440 1462 1473 1450 1402 1449 1514 1538 1444 1323 1223 1173 1147 1140 1155 1155 1174 1134 1140 1240 1224 1246 1248 1357 1375 1324 1392 1392 1447 1516 1524 1539 1678 1754 1623 1506 1431 1349 1304 1286 1296 1358 1506 1539 1629 1725 1691 1670 1651 1600 1596 1684 1785 1851 1956 2063 2148 2211 2228 2242 2303 2368 2439 2495 2520 2551 2629 2657 2676 -9999 -9999 -9999 -9999 -9999 -9999 -9999 -9999 -9999 -9999 -9999 -9999 -9999
