ncols        136
nrows        103
xllcorner    -75.242400000000
yllcorner    2.952800000000
cellsize     0.002400000000
NODATA_value -9999
 413 416 386 381 369 375 376 377 378 374 378 386 392 394 391 396 399 415 450 445 454 448 434 431 451 447 436 436 440 443 441 444 446 442 444 436 435 436 436 439 441 442 444 446 448 454 456 459 468 467 473 507 514 497 495 502 525 535 528 522 522 533 539 544 541 542 549 552 554 561 556 552 548 548 554 556 557 564 569 572 577 582 582 681 596 599 606 617 628 635 645 653 661 667 671 680 691 700 719 736 744 757 762 796 820 834 847 899 936 973 1013 1055 1121 1194 1236 1346 1414 1471 1595 1606 1589 1625 1646 1698 1773 1644 1560 1676 1541 1488 1453 1416 1282 1309 1410 1537
 371 371 370 376 377 377 376 378 376 377 379 393 396 413 428 401 402 414 442 426 456 447 458 431 456 465 461 448 445 449 447 446 448 448 447 437 436 439 439 440 438 444 449 445 447 462 466 457 468 466 465 476 483 485 522 525 515 527 527 509 529 530 534 533 538 536 537 540 553 550 547 545 548 545 547 552 556 562 568 570 574 610 703 780 640 603 610 616 624 630 633 641 651 660 679 696 707 717 722 723 748 768 771 819 880 909 936 895 912 948 991 1033 1112 1217 1318 1384 1458 1548 1608 1616 1623 1667 1683 1769 1785 1661 1661 1679 1565 1496 1436 1363 1269 1398 1475 1608
 390 385 374 376 380 378 377 375 376 377 383 391 409 437 410 452 421 409 415 425 432 441 470 461 443 465 467 468 472 467 465 462 456 458 451 450 444 441 442 441 442 445 453 463 457 466 482 482 513 474 465 471 470 478 484 486 495 514 509 512 520 531 532 521 532 535 536 548 542 539 540 543 543 546 550 561 563 570 579 591 616 657 717 838 687 631 606 623 621 621 637 644 655 660 677 697 714 723 739 753 758 740 779 818 850 959 955 970 956 985 1015 1072 1129 1302 1346 1420 1518 1619 1547 1610 1628 1650 1687 1792 1790 1718 1729 1643 1571 1517 1430 1344 1333 1415 1569 1633
 391 390 394 381 382 379 378 377 378 381 393 388 398 394 399 407 454 425 413 438 434 463 469 467 457 448 463 468 471 471 475 477 476 478 468 463 458 443 466 479 447 445 460 476 495 490 496 512 504 478 469 476 492 475 480 480 484 491 498 498 503 505 511 532 527 516 521 532 535 533 532 541 545 562 564 570 576 578 585 608 631 713 735 883 753 671 615 612 647 660 655 648 677 706 715 697 719 730 743 762 776 788 798 769 815 895 918 959 1006 1062 1081 1148 1221 1327 1362 1467 1591 1534 1499 1568 1594 1648 1662 1799 1816 1746 1717 1620 1562 1478 1389 1337 1384 1552 1570 1697
 393 385 384 387 381 380 382 385 391 390 395 403 410 417 419 435 442 433 420 450 448 443 475 474 458 466 466 470 472 473 476 476 477 480 483 487 468 463 449 454 492 465 452 459 461 479 497 492 475 487 483 489 489 483 483 485 488 490 493 495 501 504 508 512 510 518 523 529 529 529 547 556 558 560 566 568 575 579 595 614 634 687 758 865 725 669 624 626 637 661 683 678 714 794 748 697 720 732 750 768 782 798 810 827 795 827 878 908 983 1047 1114 1214 1313 1359 1403 1539 1574 1483 1466 1520 1573 1596 1671 1809 1831 1756 1692 1606 1526 1419 1369 1413 1498 1543 1694 1757
 390 388 398 386 384 381 380 390 393 396 394 408 419 443 415 441 446 441 428 435 448 465 470 474 465 469 467 471 474 476 474 477 479 481 484 486 462 472 462 454 469 498 451 453 457 460 467 471 474 490 490 496 490 492 485 498 490 494 497 498 500 502 507 512 513 531 531 525 528 539 552 549 552 557 569 570 572 575 589 620 644 690 783 846 713 662 621 636 630 636 670 681 747 796 748 697 712 725 745 779 806 810 820 831 831 803 835 875 999 1046 1121 1222 1326 1393 1445 1601 1557 1464 1454 1493 1548 1579 1654 1797 1790 1763 1688 1585 1542 1424 1380 1472 1541 1575 1739 1814
 395 395 395 382 380 382 382 385 394 397 397 410 424 426 447 433 441 459 445 462 457 467 478 475 469 468 473 473 474 474 477 479 483 481 483 488 488 469 494 484 472 464 473 466 461 459 464 470 483 483 487 497 505 501 495 495 497 499 504 510 505 502 505 511 512 515 537 534 539 533 542 547 552 558 560 562 572 574 591 619 635 708 796 809 719 665 630 641 641 638 676 693 757 785 746 726 732 725 757 801 834 858 868 858 873 876 856 837 949 1065 1136 1225 1314 1344 1418 1598 1537 1434 1427 1448 1492 1546 1645 1698 1729 1739 1640 1577 1509 1435 1402 1444 1547 1666 1706 1813
 419 404 424 395 379 382 382 383 387 389 400 406 418 454 454 457 458 456 458 460 456 459 468 470 477 451 469 464 467 477 477 479 483 484 487 492 494 488 481 502 474 479 478 481 475 476 468 470 474 484 495 506 513 511 496 495 505 514 514 507 519 514 523 531 524 517 520 531 529 533 545 538 547 547 555 558 574 587 599 629 659 715 860 790 701 654 644 648 649 649 656 696 742 774 742 758 750 761 767 801 870 909 890 914 901 902 905 861 935 1052 1099 1175 1270 1279 1305 1463 1524 1425 1378 1404 1462 1511 1616 1679 1717 1719 1662 1599 1532 1431 1454 1544 1480 1591 1663 1743
 408 430 440 401 395 386 383 384 382 388 390 432 418 449 452 458 440 443 419 420 442 472 433 449 449 435 446 462 461 478 477 482 482 482 469 497 506 492 501 509 473 490 501 484 482 484 476 480 475 481 496 496 510 511 516 505 509 516 522 527 527 525 538 571 541 533 524 525 525 540 551 545 545 547 564 558 563 580 599 635 656 744 871 761 704 663 641 657 652 657 675 678 685 710 745 740 790 823 828 871 925 957 949 922 938 937 936 913 909 996 1051 1089 1220 1223 1238 1356 1412 1350 1349 1394 1450 1533 1587 1678 1748 1679 1629 1566 1466 1472 1542 1674 1649 1558 1545 1671
 433 439 448 423 409 398 393 390 389 391 388 422 438 442 447 439 436 409 418 442 449 433 430 454 431 423 431 461 471 479 480 480 454 454 465 481 512 498 501 512 484 496 508 492 491 493 484 484 475 481 490 495 496 507 511 514 513 513 519 525 533 537 555 576 576 569 541 531 535 533 545 563 549 552 568 579 568 574 598 639 677 795 838 740 687 655 657 651 665 686 713 681 728 805 793 763 797 868 882 934 968 1026 995 957 964 965 977 971 936 917 972 1028 1130 1133 1194 1223 1317 1301 1321 1372 1482 1583 1612 1695 1715 1641 1586 1501 1496 1548 1633 1774 1787 1719 1630 1651
 419 439 450 450 446 439 401 394 394 391 390 401 418 418 408 409 416 408 408 421 422 420 418 422 422 423 425 434 449 459 466 468 442 451 453 488 501 529 505 519 492 494 511 506 500 504 487 479 491 480 485 489 495 498 505 514 523 522 528 536 541 552 566 603 604 604 574 555 547 538 550 572 563 551 562 580 596 576 587 630 663 786 795 720 678 654 662 655 701 744 734 738 710 811 845 841 801 857 898 951 1052 1052 1033 983 997 1000 1024 1036 1045 1019 1031 1008 1091 1090 1118 1189 1202 1239 1316 1396 1429 1513 1592 1727 1657 1600 1551 1586 1623 1555 1599 1725 1879 1775 1728 1643
 415 441 436 450 426 411 402 400 397 390 390 396 403 397 402 406 400 401 407 408 409 414 412 413 415 419 427 437 440 437 437 434 447 464 462 474 510 511 530 528 502 510 533 516 512 500 494 482 501 492 486 489 500 497 501 509 523 513 524 528 535 545 547 578 601 606 610 597 563 563 561 588 573 561 563 590 620 602 584 613 635 766 774 707 669 666 665 662 705 764 779 779 783 807 818 891 836 830 878 964 1007 1057 1064 1034 1038 1046 1071 1100 1087 1144 1137 1176 1194 1180 1229 1282 1269 1315 1370 1490 1582 1563 1648 1696 1653 1625 1555 1620 1732 1644 1654 1794 1918 1811 1735 1688
 412 420 448 450 426 434 414 400 396 388 390 396 393 390 394 398 397 395 395 397 402 403 404 407 411 416 426 428 432 432 428 433 452 463 477 473 485 494 529 528 538 522 527 513 506 505 499 496 504 503 494 501 496 512 507 509 513 506 516 526 527 549 533 562 596 606 608 607 584 563 570 596 582 573 568 583 605 629 612 598 628 724 739 676 677 687 684 689 707 726 739 794 841 847 847 920 888 899 912 941 993 1038 1082 1063 1072 1093 1133 1173 1250 1259 1241 1252 1240 1286 1344 1361 1332 1367 1371 1486 1546 1669 1715 1737 1700 1629 1603 1624 1795 1834 1785 1786 1931 1922 1827 1756
 415 440 443 452 445 441 414 404 404 393 392 396 393 396 400 397 398 397 397 398 401 403 403 410 409 416 427 423 429 424 426 431 455 462 482 487 486 514 550 557 538 499 520 510 502 492 500 505 509 511 501 504 508 511 501 494 503 515 525 522 525 538 526 552 567 590 607 611 577 554 565 580 585 585 581 598 633 641 621 595 635 664 683 657 664 675 683 686 695 708 726 745 796 835 867 930 925 954 946 961 999 1036 1093 1089 1109 1132 1177 1215 1311 1304 1288 1289 1294 1371 1417 1398 1386 1422 1397 1452 1523 1670 1715 1762 1706 1647 1662 1753 1807 1910 1892 1921 1994 1986 1893 1813
 421 424 447 448 452 447 422 419 405 399 396 395 399 402 405 404 401 400 404 402 401 399 402 406 406 421 424 421 428 423 427 435 443 458 481 492 518 520 560 537 512 505 508 503 496 483 493 506 500 504 505 503 492 495 495 488 487 508 509 505 530 538 546 541 547 559 549 549 546 549 559 562 571 575 587 593 623 661 646 617 606 641 728 660 666 680 687 696 733 747 759 798 809 825 872 925 1004 956 972 986 1018 1064 1098 1136 1164 1196 1220 1314 1360 1370 1362 1362 1382 1470 1555 1518 1484 1463 1475 1577 1549 1612 1673 1766 1809 1707 1710 1865 1948 2042 2063 2073 2081 2082 1990 1900
 436 447 436 449 451 434 413 401 402 413 407 410 398 404 406 409 405 409 407 405 402 402 402 403 407 411 413 421 423 423 430 432 443 460 472 492 496 512 520 500 507 485 499 496 482 486 492 501 488 492 498 487 483 479 482 483 488 491 500 515 509 512 527 518 518 522 527 543 544 555 552 557 557 566 576 577 604 631 673 635 620 651 741 676 679 723 742 725 787 819 823 814 865 871 867 920 906 896 933 962 1008 1041 1079 1138 1200 1253 1335 1370 1394 1427 1464 1486 1510 1599 1600 1559 1524 1541 1575 1639 1707 1718 1764 1793 1868 1818 1842 1947 2055 2004 2008 2133 2194 2186 2054 2010
 447 447 454 448 450 440 414 409 416 438 414 420 415 404 415 413 409 412 416 413 410 413 412 404 409 417 413 415 420 421 429 431 438 453 473 496 475 488 480 478 488 476 489 487 478 469 489 485 483 499 488 482 474 480 496 504 494 487 492 496 509 513 509 517 525 532 543 554 555 563 582 567 569 591 580 586 596 607 682 656 634 671 774 696 685 741 732 767 779 777 789 787 843 884 878 850 843 862 898 948 989 1018 1060 1125 1191 1227 1353 1411 1451 1472 1501 1593 1625 1603 1611 1598 1593 1635 1705 1731 1781 1789 1771 1812 1890 1975 2007 2071 2057 1973 2016 2109 2210 2215 2123 2087
 432 435 448 450 446 420 411 427 412 421 421 420 412 410 429 430 419 433 428 431 418 417 414 410 407 412 410 414 418 426 430 465 460 490 483 477 472 500 476 468 467 462 470 471 471 475 487 471 480 488 488 471 471 496 504 495 499 512 494 493 500 503 509 512 516 528 554 573 577 575 601 594 586 604 604 600 589 607 630 654 640 712 723 708 686 710 675 705 721 731 713 719 762 760 766 779 788 807 869 924 966 985 1056 1112 1157 1194 1280 1384 1407 1392 1420 1521 1552 1606 1606 1637 1643 1704 1680 1732 1844 1780 1747 1826 1888 1951 1975 1972 1944 1989 2073 2137 2182 2232 2217 2202
 450 451 449 442 449 455 415 419 420 415 423 419 416 414 423 431 441 438 438 436 445 465 457 408 417 410 414 413 433 434 439 454 453 495 489 473 458 478 466 459 456 466 468 471 463 480 482 474 480 500 473 471 475 491 487 489 483 496 506 503 504 510 507 516 520 530 539 571 589 617 613 647 625 613 616 616 605 614 624 626 620 640 701 680 648 658 669 683 687 693 711 715 727 749 757 774 793 782 856 890 924 969 1033 1077 1119 1151 1213 1324 1359 1336 1380 1412 1453 1541 1633 1642 1674 1621 1625 1755 1755 1739 1719 1787 1872 1856 1876 1880 1897 2044 2064 2116 2187 2257 2324 2367
 452 455 455 448 456 456 428 429 432 426 423 435 418 418 440 431 434 448 447 441 463 441 438 418 459 418 416 420 424 438 443 445 463 460 469 483 457 458 456 466 450 461 464 456 467 477 475 468 469 486 467 473 494 474 482 485 492 497 499 509 522 527 518 530 524 546 546 555 578 614 648 657 662 654 634 636 633 617 610 614 617 648 628 641 656 701 723 734 742 746 770 744 763 788 814 858 846 821 804 863 911 951 996 1041 1080 1087 1154 1240 1324 1294 1305 1367 1365 1471 1512 1575 1556 1526 1656 1688 1681 1703 1687 1730 1758 1838 1791 1818 1895 2024 2116 2144 2194 2286 2328 2395
 453 459 457 455 460 457 424 438 465 452 434 444 422 428 453 439 440 450 449 452 436 427 419 423 467 441 415 422 431 448 459 442 437 469 467 478 452 447 448 448 448 466 466 458 475 492 488 469 468 476 464 470 473 489 492 496 491 508 504 507 515 527 529 530 530 531 542 561 570 588 615 649 665 666 641 611 606 609 607 611 618 618 661 669 705 741 756 807 801 804 814 795 767 814 849 885 907 866 860 843 861 879 913 986 1027 1057 1088 1143 1225 1243 1264 1308 1321 1366 1403 1438 1442 1526 1614 1599 1631 1658 1670 1684 1698 1710 1741 1787 1797 1991 1969 2060 2108 2190 2229 2374
 457 459 461 458 459 438 438 435 460 442 447 447 439 426 429 449 440 454 442 431 424 420 420 430 466 440 418 422 434 458 462 441 466 473 462 495 460 444 440 444 443 454 452 450 474 483 465 459 468 467 461 468 477 490 495 499 509 501 527 517 524 528 548 566 544 547 555 560 563 582 595 613 629 669 640 597 601 596 601 614 619 638 684 706 744 781 794 849 841 841 846 818 780 824 876 912 930 896 895 904 894 921 940 944 1000 1026 1073 1159 1306 1300 1296 1322 1323 1332 1346 1364 1402 1534 1544 1570 1586 1655 1671 1642 1638 1652 1719 1772 1788 1894 1885 2013 2004 2157 2259 2352
 452 457 459 462 464 433 441 460 456 439 451 442 431 426 433 447 454 440 424 426 429 424 427 447 423 436 417 414 420 450 446 428 451 470 452 472 445 438 442 440 442 448 443 445 451 450 455 457 460 467 469 473 479 481 487 495 504 517 508 547 570 571 572 575 576 580 547 551 562 565 573 578 589 610 621 602 587 594 601 609 630 664 707 736 787 840 874 894 894 902 859 834 796 852 897 950 973 957 945 945 932 940 973 1022 1058 1082 1150 1255 1347 1345 1379 1394 1441 1424 1395 1406 1448 1416 1483 1509 1568 1639 1611 1599 1690 1774 1826 1872 1897 1832 1845 1915 2009 2130 2287 2343
 453 453 456 460 462 456 438 453 461 452 462 450 439 432 450 453 456 455 425 431 441 470 469 463 438 446 416 414 417 422 423 430 436 461 447 474 439 439 442 439 446 444 451 454 449 448 454 457 455 461 469 471 473 485 485 487 490 506 544 555 566 568 572 572 572 552 542 558 548 552 564 561 563 582 592 587 582 593 618 636 641 682 718 762 830 883 903 902 927 937 876 861 825 874 932 981 1025 1034 1009 987 981 974 1031 1068 1110 1137 1226 1320 1384 1436 1471 1483 1508 1465 1445 1481 1495 1440 1431 1467 1566 1582 1588 1668 1675 1725 1782 1820 2006 2004 1968 1931 2044 2148 2256 2300
 451 454 450 454 463 463 471 455 473 477 472 446 438 432 445 456 458 453 429 430 460 474 469 470 446 429 429 417 416 422 421 422 430 438 477 442 437 439 444 446 449 454 452 454 455 450 478 478 462 474 471 473 478 478 488 495 521 554 561 563 566 566 566 552 532 531 533 535 535 539 545 565 565 564 571 581 587 609 615 656 671 707 759 780 828 885 906 926 955 948 933 916 872 882 936 1008 1051 1081 1072 1038 1050 1047 1073 1096 1135 1192 1326 1362 1383 1468 1591 1598 1575 1496 1516 1580 1510 1460 1500 1521 1540 1548 1588 1622 1699 1738 1784 1899 1906 1951 1972 2063 2044 2178 2297 2314
 449 418 423 442 459 466 451 442 449 467 464 443 445 437 438 460 459 454 434 437 457 480 474 476 440 450 475 435 441 457 424 422 435 460 457 437 436 443 448 463 476 469 471 457 452 462 467 475 484 515 531 531 535 522 529 548 553 555 559 564 556 548 527 523 524 527 526 529 536 544 542 555 559 563 572 588 591 591 629 677 691 719 760 801 839 897 934 963 973 978 979 958 944 918 938 1013 1060 1100 1120 1094 1123 1121 1143 1161 1286 1326 1383 1425 1439 1548 1662 1691 1593 1557 1567 1616 1517 1531 1571 1594 1649 1636 1588 1573 1613 1673 1750 1853 1973 1965 2073 2124 2172 2207 2288 2315
 407 408 413 433 436 462 434 433 437 450 463 452 455 449 459 462 472 434 432 440 448 478 475 469 437 459 467 436 457 458 433 428 422 427 427 432 438 447 450 455 484 485 471 457 462 458 472 472 482 520 505 536 539 541 548 549 550 553 548 547 530 519 519 518 519 528 527 548 547 564 597 550 561 567 577 593 605 607 639 680 702 732 768 800 842 891 928 960 969 988 1011 998 1002 997 980 1014 1063 1094 1161 1153 1185 1205 1217 1308 1359 1407 1414 1496 1549 1596 1705 1654 1594 1623 1687 1593 1559 1574 1632 1694 1714 1668 1660 1624 1643 1756 1708 1844 1844 1886 2004 2174 2266 2299 2219 2228
 407 410 408 410 414 414 418 424 433 452 449 456 474 453 479 453 444 435 440 442 443 479 481 452 442 462 456 454 468 444 442 434 428 431 433 448 438 447 462 471 472 490 478 465 461 463 459 464 473 475 501 529 538 544 544 545 548 536 536 535 507 512 511 522 521 525 523 551 568 581 652 556 563 563 571 584 600 624 635 673 698 724 756 797 844 855 878 936 957 964 1010 1030 1049 1045 1050 1057 1090 1118 1177 1224 1241 1250 1306 1353 1412 1444 1439 1489 1593 1680 1678 1670 1680 1739 1684 1633 1628 1611 1679 1732 1751 1726 1697 1648 1643 1767 1846 1769 1865 1896 1959 2063 2193 2223 2153 2173
 417 429 418 416 415 417 419 418 436 429 441 443 452 471 462 483 444 440 446 444 449 476 488 461 443 467 493 464 473 445 450 452 460 444 432 440 455 451 453 453 458 496 497 484 473 458 462 465 472 517 500 510 536 533 530 527 531 517 505 504 503 512 514 517 515 515 536 548 563 574 592 585 568 569 577 602 615 637 632 658 677 715 749 791 821 824 887 902 933 949 978 1002 1023 1060 1083 1107 1134 1165 1207 1265 1349 1396 1379 1395 1457 1490 1515 1487 1582 1634 1665 1726 1772 1727 1672 1670 1676 1688 1738 1770 1805 1765 1719 1668 1702 1708 1879 1934 1999 2015 2033 2145 2195 2165 2105 2092
 437 448 446 430 424 443 457 435 422 425 431 443 472 450 449 467 468 441 441 443 450 464 487 473 451 455 464 505 472 456 465 460 460 444 439 449 458 459 457 461 479 470 484 504 511 467 464 465 466 485 521 523 527 526 509 510 513 502 498 504 504 510 507 513 512 522 529 537 556 565 646 617 576 597 575 579 603 614 625 682 721 742 773 800 770 805 840 874 894 915 936 970 994 1022 1061 1099 1137 1174 1206 1283 1389 1432 1438 1461 1495 1553 1530 1517 1548 1595 1651 1733 1800 1716 1725 1736 1728 1722 1772 1825 1862 1795 1768 1700 1682 1771 1896 2015 2082 2035 2038 2176 2252 2197 2101 2088
 447 469 450 439 430 430 460 441 441 433 430 433 443 444 449 455 469 445 441 444 448 459 482 474 461 467 492 508 465 469 480 454 464 445 442 454 458 467 462 471 478 484 490 512 507 473 467 468 466 467 519 522 525 509 500 506 512 500 499 498 504 503 509 527 535 536 541 554 553 586 627 686 628 589 582 580 593 589 631 684 725 762 799 808 743 777 807 872 872 888 916 935 976 999 1044 1075 1141 1179 1227 1275 1338 1429 1473 1502 1522 1575 1554 1528 1561 1592 1654 1735 1730 1742 1766 1775 1752 1750 1799 1873 1891 1814 1804 1738 1701 1761 1857 1966 2098 2112 2080 2167 2287 2214 2123 2129
 459 460 461 456 446 434 438 464 468 433 431 430 442 458 456 464 460 458 448 448 447 460 478 501 471 463 481 491 494 507 516 490 468 449 445 455 465 487 488 480 493 487 506 509 503 485 477 470 468 471 472 477 480 479 486 483 490 494 494 498 503 513 525 533 536 542 544 565 575 584 623 707 695 638 632 596 600 592 607 681 745 748 795 727 706 733 795 810 832 841 868 913 940 975 1018 1071 1131 1162 1202 1240 1295 1406 1446 1503 1556 1605 1583 1540 1556 1607 1636 1618 1643 1720 1767 1819 1802 1821 1871 1929 1917 1847 1834 1839 1721 1854 1851 1962 2132 2176 2233 2245 2327 2271 2206 2071
 445 449 451 456 441 443 470 447 469 464 452 431 436 452 455 465 484 482 459 456 448 453 478 483 491 491 481 472 487 484 488 479 458 459 441 447 455 463 523 513 510 508 491 512 528 515 493 489 468 470 469 476 476 475 480 486 488 491 496 499 511 510 518 530 542 551 550 557 567 594 646 707 739 656 645 645 628 679 636 630 701 689 678 675 675 694 703 727 741 780 855 879 919 950 998 1046 1090 1124 1166 1210 1260 1303 1397 1461 1521 1558 1586 1543 1562 1557 1541 1559 1635 1725 1783 1840 1876 1892 1968 1981 1936 1885 1877 1856 1823 1809 1990 2035 2177 2214 2250 2334 2338 2238 2188 2083
 450 450 460 472 470 474 470 474 476 475 474 456 432 445 446 485 488 486 484 494 462 459 457 463 484 507 514 514 521 501 487 482 463 460 467 452 449 455 497 490 534 504 514 505 553 510 507 505 498 488 483 475 476 483 501 489 492 497 496 503 507 512 522 539 564 599 580 562 590 620 667 747 750 657 649 694 688 696 740 660 627 697 718 739 723 717 690 705 737 768 819 852 882 917 959 996 1041 1067 1142 1176 1220 1239 1279 1360 1464 1480 1533 1527 1499 1439 1479 1545 1627 1716 1792 1916 1951 1981 2038 2009 1943 1899 1947 1955 1889 1808 1963 2100 2228 2249 2313 2299 2311 2285 2174 2062
 439 449 449 468 467 473 474 464 473 476 478 476 437 440 448 487 490 486 479 508 475 461 458 460 467 480 487 494 525 562 527 507 485 462 490 480 471 451 455 462 502 530 517 529 565 556 550 539 510 496 498 489 483 492 508 513 530 528 547 521 510 513 527 550 564 585 570 580 624 679 703 787 750 678 688 724 768 781 755 710 674 723 782 802 789 794 734 702 741 762 781 814 868 891 927 970 1030 1069 1111 1139 1170 1202 1254 1296 1346 1390 1420 1358 1366 1383 1495 1622 1707 1792 1866 1908 1999 2075 2093 2027 1991 1921 1949 1977 1955 1912 1891 2005 2060 2240 2293 2234 2205 2237 2112 2049
 427 428 442 458 456 462 470 466 479 462 451 448 442 442 435 450 464 452 471 482 507 471 461 461 467 474 472 486 494 515 560 526 483 468 506 552 501 538 472 471 517 513 510 501 561 606 614 590 551 519 507 492 499 483 485 491 494 502 537 553 515 514 519 526 541 544 553 570 618 683 689 761 719 695 728 769 807 877 788 722 716 779 847 856 856 835 802 708 743 763 784 827 866 899 937 980 1028 1048 1072 1113 1142 1195 1246 1274 1314 1329 1300 1296 1303 1360 1504 1685 1761 1867 1933 1956 2014 2139 2130 2055 1995 1959 1952 1993 2075 2043 1960 1946 2063 2221 2240 2135 2064 2132 2048 1985
 428 452 452 460 454 458 462 474 477 465 467 460 478 450 476 456 452 448 462 478 505 501 490 465 464 469 474 480 491 506 530 554 515 499 555 561 550 503 472 467 491 483 490 499 532 571 572 601 612 581 534 522 518 508 502 492 514 504 510 548 547 519 525 529 534 542 550 553 567 581 606 679 650 645 728 759 878 839 771 794 762 833 913 964 900 869 833 733 726 754 788 852 886 916 945 974 997 1013 1042 1054 1096 1160 1201 1237 1250 1265 1247 1233 1281 1372 1467 1603 1713 1845 1918 1994 2072 2167 2144 2091 2026 1993 1974 2038 2145 2148 2026 1984 2095 2227 2186 2066 2036 1984 1939 1901
 438 432 434 438 443 446 448 455 464 471 472 462 481 468 469 491 487 482 451 470 488 518 510 501 482 487 475 474 493 505 525 561 533 548 561 562 552 500 513 523 494 475 488 502 522 512 565 594 620 624 587 571 543 529 521 516 511 521 510 515 538 546 531 537 542 547 561 589 601 596 590 608 591 628 695 739 849 833 828 842 822 841 951 1000 940 878 841 794 738 747 810 845 862 896 925 929 957 972 1008 1037 1094 1127 1155 1164 1174 1186 1185 1232 1412 1551 1719 1779 1686 1765 1811 1872 1975 2140 2170 2147 2060 2041 2031 2120 2170 2202 2084 2011 2131 2222 2169 2079 2020 1976 1882 1824
 457 442 447 441 450 450 465 465 464 478 474 468 481 462 477 490 495 483 453 453 469 488 516 511 503 499 472 472 492 501 515 549 555 561 562 563 549 514 511 554 523 486 478 479 491 559 556 592 605 619 619 608 537 552 534 533 534 525 516 514 527 537 549 549 551 562 584 629 636 641 616 628 596 636 675 819 789 788 868 888 871 879 972 1031 944 904 869 826 763 753 767 785 814 834 865 899 914 958 1001 1049 1080 1101 1099 1088 1102 1128 1158 1235 1398 1632 1783 1808 1765 1749 1771 1849 1949 2092 2136 2188 2128 2060 2070 2184 2174 2217 2107 2076 2120 2257 2194 2105 2017 1974 1850 1800
 435 440 455 479 457 458 450 460 465 468 462 461 480 480 453 490 494 497 478 460 463 478 493 526 516 506 498 474 486 496 502 514 556 563 562 566 564 551 498 551 558 504 493 487 489 516 539 533 538 609 626 630 605 601 589 555 569 535 528 519 523 532 549 555 561 581 622 669 692 700 670 651 619 621 639 740 717 751 800 858 917 942 1034 1065 980 938 892 835 815 786 825 827 845 910 926 934 939 947 952 1004 1029 1043 1038 1071 1122 1170 1169 1279 1452 1714 1870 1930 1895 1883 1889 1941 2028 2158 2113 2144 2154 2146 2172 2282 2333 2265 2206 2194 2204 2231 2175 2126 2074 1936 1835 1800
 441 446 448 455 453 444 442 458 446 448 462 455 485 486 462 482 488 501 498 464 458 473 472 505 529 520 488 481 481 483 488 510 526 555 564 566 565 560 527 560 563 526 487 527 490 493 499 511 563 594 617 631 635 641 632 620 576 571 540 526 537 541 563 565 575 601 657 685 763 744 708 695 696 705 745 660 708 778 829 887 911 990 1118 1084 1025 967 911 854 865 805 836 901 934 965 1003 1016 1032 1029 1012 1045 1059 1045 1055 1097 1167 1234 1330 1378 1424 1735 1892 1998 2038 2012 2013 2041 2140 2190 2208 2152 2178 2185 2200 2261 2378 2374 2356 2312 2299 2212 2136 2039 1951 1893 1871 1866
 438 429 447 445 430 437 448 438 454 450 456 449 453 490 494 471 461 499 500 477 459 460 460 478 507 531 505 489 483 487 489 489 503 523 552 570 568 561 561 562 566 564 522 496 568 533 516 498 519 520 537 551 574 604 636 642 647 615 574 535 552 553 556 586 605 623 642 686 782 749 757 761 763 821 731 660 692 750 808 883 920 1071 1127 1087 1047 984 932 901 855 837 894 851 881 980 1066 1095 1098 1097 1085 1085 1131 1115 1116 1099 1145 1200 1263 1407 1560 1796 1823 1921 2057 2070 2070 2142 2179 2162 2214 2175 2205 2224 2224 2329 2329 2469 2400 2271 2182 2118 2097 2031 2040 1937 1957 1915
 423 424 435 438 426 436 432 442 448 445 448 447 460 461 476 487 464 499 501 504 503 476 462 473 482 495 539 540 502 485 490 493 499 500 529 555 566 561 565 564 566 568 571 513 515 567 577 560 507 548 567 608 609 634 647 651 654 631 553 543 563 580 582 577 609 648 692 744 738 791 801 823 827 834 703 673 712 771 825 915 1044 1051 1033 1047 1055 989 950 925 867 916 982 1018 961 913 985 1125 1170 1167 1156 1138 1182 1193 1161 1117 1142 1183 1239 1408 1548 1717 1793 1895 2001 2085 2129 2154 2045 2084 2209 2204 2217 2265 2331 2381 2428 2430 2343 2288 2231 2173 2222 2121 2048 2034 2000 2034
 413 416 423 442 426 439 447 444 439 437 438 448 449 465 487 496 484 471 503 503 507 506 466 472 483 489 515 521 539 523 498 494 494 499 505 518 529 557 563 566 567 569 571 569 509 572 576 578 513 515 552 584 625 636 635 635 649 616 553 559 556 583 611 618 621 636 699 757 763 802 857 828 802 770 691 700 740 819 896 901 931 976 988 1029 1051 999 961 933 949 982 1051 1123 1109 1033 923 937 1017 1235 1218 1195 1259 1226 1204 1168 1164 1194 1261 1446 1566 1629 1710 1739 1923 1993 2021 2055 1941 2045 2154 2209 2245 2285 2373 2466 2470 2527 2458 2366 2306 2312 2254 2182 2133 2098 2092 2035
 427 422 413 423 441 431 454 434 435 433 441 446 456 464 483 496 500 479 479 506 507 508 493 469 474 478 487 501 534 519 542 516 497 508 510 507 518 527 561 565 567 571 572 572 553 531 579 584 579 544 526 528 541 576 586 631 647 624 562 573 569 586 622 684 667 705 722 746 798 847 881 830 785 722 735 766 831 808 783 822 869 915 951 1002 1039 994 998 990 1022 1080 1136 1205 1247 1141 1094 996 1020 1104 1277 1247 1315 1273 1270 1231 1194 1226 1305 1470 1505 1578 1590 1650 1818 1845 1844 1942 1853 1980 2014 2171 2282 2366 2416 2501 2430 2390 2423 2367 2350 2240 2253 2202 2181 2164 2125 2022
 434 432 418 433 432 435 436 439 436 434 440 445 459 485 488 499 501 501 474 486 511 511 513 471 470 476 488 515 518 542 548 545 515 523 511 508 518 519 528 542 565 571 575 578 571 543 545 577 585 589 585 539 547 541 575 604 627 622 568 580 593 611 650 717 763 765 740 773 820 884 871 823 771 769 792 852 912 853 818 820 847 905 958 993 1027 1038 1043 1030 1071 1143 1230 1279 1331 1301 1155 1043 1163 1096 1160 1289 1290 1226 1289 1263 1246 1263 1299 1395 1477 1465 1543 1625 1785 1744 1778 1858 1834 1811 1947 2130 2317 2353 2389 2448 2339 2270 2265 2279 2221 2157 2168 2153 2168 2146 2134 2038
 430 436 415 427 446 432 428 433 441 438 448 459 466 488 484 493 503 502 503 478 510 513 515 484 480 478 490 500 528 518 533 548 524 516 525 509 514 527 523 540 565 573 576 579 568 579 551 581 588 593 597 583 569 543 581 577 615 605 576 596 600 615 640 715 753 773 789 797 842 899 874 805 798 788 832 886 941 873 862 840 854 876 933 982 1026 1071 1075 1075 1108 1187 1271 1350 1398 1360 1214 1090 1157 1212 1156 1175 1179 1251 1254 1276 1292 1290 1339 1395 1405 1443 1469 1661 1730 1676 1738 1802 1771 1855 1991 2122 2211 2230 2281 2386 2350 2235 2184 2168 2210 2131 2108 2122 2143 2115 2124 2035
 432 435 417 425 419 423 436 441 432 435 448 449 462 474 471 492 504 505 508 504 482 514 516 516 486 502 484 498 520 498 526 552 546 520 530 515 517 527 527 521 550 569 580 580 581 584 580 563 587 592 599 603 598 549 580 631 613 584 601 640 603 628 705 706 738 781 827 853 893 887 841 806 820 841 903 959 965 886 892 857 911 922 935 964 1015 1092 1140 1127 1201 1192 1330 1437 1477 1337 1246 1171 1115 1206 1224 1230 1218 1336 1316 1340 1310 1344 1363 1411 1424 1569 1528 1552 1586 1629 1660 1697 1763 1904 1980 2012 2091 2025 2103 2267 2325 2248 2167 2070 2059 2068 2034 2065 2078 2055 2041 1969
 414 418 424 423 427 432 424 428 432 438 446 452 467 454 454 470 508 508 509 509 504 510 519 516 502 521 520 487 487 493 508 524 549 529 526 531 520 527 536 534 528 546 575 583 585 585 588 588 590 590 599 605 610 585 553 564 596 595 601 645 629 654 666 705 748 785 825 877 938 944 871 826 831 912 966 1025 960 927 925 904 930 968 954 981 1029 1088 1160 1193 1284 1303 1405 1512 1436 1304 1241 1178 1120 1208 1333 1343 1192 1344 1397 1426 1383 1399 1375 1472 1530 1497 1635 1665 1685 1714 1759 1805 1815 1890 1855 1918 1928 1986 2111 2167 2237 2121 2095 2017 2011 2034 1970 1989 1980 1958 1960 1858
 413 410 414 446 431 429 425 428 429 436 442 446 450 468 466 467 508 515 513 512 514 503 492 523 521 506 529 527 505 488 503 522 542 536 532 532 538 527 537 533 537 532 559 578 586 590 589 593 598 597 602 614 627 624 557 568 593 612 610 646 678 674 698 749 757 790 846 903 955 976 858 863 875 967 1030 1048 969 969 968 973 973 987 999 1031 1035 1129 1194 1250 1328 1400 1478 1585 1522 1404 1375 1315 1162 1211 1370 1392 1232 1295 1420 1489 1404 1425 1467 1476 1570 1567 1632 1704 1740 1664 1621 1753 1870 1793 1706 1820 1853 1965 1960 2013 2116 2184 2134 2128 1980 1940 1941 1908 1902 1884 1896 1800
 400 400 409 423 421 421 430 447 437 443 449 449 467 461 459 463 470 511 514 516 519 496 495 526 524 526 529 532 529 515 504 500 514 525 543 536 538 541 538 535 538 550 538 573 585 591 594 594 598 603 609 623 673 600 567 581 600 635 620 642 687 721 744 769 801 838 862 911 1000 930 878 909 946 1010 1091 1044 997 997 1002 1026 1030 1026 1029 1071 1095 1180 1193 1293 1383 1441 1549 1628 1654 1544 1408 1263 1212 1277 1410 1432 1350 1316 1311 1428 1472 1459 1499 1568 1631 1646 1725 1687 1656 1534 1542 1676 1714 1734 1603 1713 1762 1797 1849 1894 2138 2254 2216 2111 2044 1984 1912 1898 1848 1818 1777 1736
 401 403 400 415 433 424 441 432 447 447 450 457 464 464 464 458 455 477 519 516 520 521 507 518 529 531 531 533 539 521 516 505 511 517 529 550 541 543 546 548 542 546 552 545 553 575 595 600 601 607 626 644 683 624 576 575 605 620 648 644 681 722 758 810 818 860 898 956 999 947 942 974 1034 1098 1167 1079 1054 1063 1076 1086 1089 1081 1082 1123 1181 1227 1288 1380 1482 1541 1634 1685 1584 1564 1393 1374 1406 1425 1410 1415 1369 1383 1428 1397 1480 1532 1545 1608 1689 1691 1809 1721 1619 1455 1550 1535 1496 1563 1521 1569 1665 1677 1785 1886 2065 2188 2082 2044 1985 1904 1866 1853 1864 1873 1863 1890
 400 401 401 408 431 441 435 428 443 446 453 458 455 453 450 457 459 458 502 520 521 524 521 525 531 532 535 534 536 537 522 512 507 513 525 552 555 546 553 556 554 560 558 553 551 562 595 600 608 613 662 674 635 600 617 625 588 600 617 641 695 720 758 799 834 877 932 1050 1008 967 986 1036 1096 1165 1215 1122 1102 1104 1115 1117 1126 1110 1127 1165 1249 1284 1405 1467 1555 1608 1647 1511 1424 1383 1471 1440 1376 1404 1387 1377 1387 1382 1404 1485 1447 1471 1501 1526 1592 1713 1827 1693 1529 1429 1534 1434 1486 1549 1584 1743 1859 1870 1933 2004 2108 2117 2054 2008 1951 1918 2006 1914 2022 1935 1951 2026
 402 401 400 407 414 427 425 423 435 443 446 442 439 441 451 443 448 451 457 521 526 526 527 513 532 534 538 538 540 528 521 519 510 506 522 535 566 561 554 549 557 563 568 564 563 557 563 570 610 644 638 617 673 666 645 641 647 618 630 666 705 753 763 806 848 895 941 1029 965 964 985 1084 1141 1182 1137 1116 1107 1086 1081 1092 1063 1058 1145 1217 1278 1353 1497 1551 1569 1477 1472 1341 1305 1314 1302 1311 1252 1256 1315 1401 1384 1403 1427 1478 1491 1524 1529 1610 1696 1764 1780 1618 1506 1381 1427 1429 1600 1622 1746 1853 1918 1993 2066 2129 2071 2023 1979 1944 1939 2030 2051 1992 2116 2021 2013 2117
 404 402 403 401 408 428 425 425 430 433 437 432 434 442 441 439 454 457 452 471 523 528 530 516 525 538 539 539 539 541 531 555 517 511 512 527 538 579 562 559 558 567 569 572 563 558 563 565 593 636 596 621 651 683 656 665 648 639 624 667 720 776 772 809 828 883 938 1018 939 941 1017 1115 1157 1121 1086 1068 1075 1023 1033 1051 1014 1048 1118 1197 1258 1406 1517 1450 1507 1467 1363 1298 1268 1235 1230 1301 1213 1231 1286 1333 1362 1296 1366 1400 1472 1492 1579 1616 1697 1762 1700 1563 1436 1364 1427 1495 1594 1706 1805 1822 1817 1940 2087 2144 2088 1966 1894 1884 2010 2068 2099 2114 2191 2060 2075 2154
 409 402 399 405 417 407 413 435 433 432 426 428 441 434 449 449 443 460 465 456 464 528 532 520 536 539 541 544 541 544 544 556 539 514 512 524 537 552 589 579 568 569 576 579 580 566 567 576 578 577 595 617 658 635 633 636 661 686 675 664 733 756 740 751 767 821 874 965 923 972 1061 1039 1038 1026 1023 1013 1011 967 988 952 967 1073 1139 1224 1324 1452 1394 1320 1389 1421 1376 1205 1176 1175 1163 1220 1184 1195 1267 1249 1231 1203 1202 1247 1352 1427 1569 1703 1749 1600 1583 1490 1363 1347 1395 1466 1530 1688 1729 1681 1788 1991 2095 2051 2008 1892 1786 1946 2051 2181 2209 2273 2253 2193 2234 2211
 405 404 413 416 408 417 417 433 427 423 429 426 429 432 439 441 440 449 454 462 466 530 536 532 538 543 543 543 546 547 549 552 562 528 523 518 532 553 585 611 597 593 585 584 586 595 589 583 587 576 585 590 591 605 608 618 627 631 638 643 668 704 692 707 724 776 807 874 892 966 951 938 957 990 984 959 945 923 917 935 977 1099 1153 1236 1399 1346 1314 1245 1278 1321 1297 1297 1129 1099 1117 1179 1115 1120 1214 1170 1148 1142 1171 1254 1331 1445 1590 1670 1605 1604 1440 1400 1310 1439 1493 1518 1619 1663 1568 1680 1840 1933 2015 1933 1890 1793 1766 1927 1983 2082 2153 2280 2331 2263 2177 2087
 403 403 429 425 416 424 427 425 427 428 443 437 438 440 436 443 444 452 451 457 469 534 541 540 540 546 543 545 549 551 547 555 566 569 538 522 529 542 578 574 587 617 591 612 613 614 616 613 599 598 589 592 608 619 618 620 618 625 638 645 649 653 661 678 685 737 769 790 810 850 873 911 937 940 910 908 901 890 875 936 997 1081 1181 1287 1361 1254 1154 1139 1199 1230 1140 1286 1178 1074 1104 1162 1087 1091 1111 1160 1116 1142 1153 1204 1287 1416 1420 1553 1571 1457 1395 1284 1389 1532 1612 1655 1606 1512 1633 1717 1842 1896 1897 1832 1763 1668 1805 1891 1934 2044 2159 2335 2243 2094 2038 1987
 407 422 432 412 423 433 436 433 433 428 431 452 458 441 448 450 452 457 463 470 461 522 542 541 541 544 547 548 553 553 553 560 568 594 545 524 526 531 541 551 562 590 618 665 636 633 635 651 606 624 625 600 640 638 634 641 656 658 669 669 679 682 691 665 669 699 723 732 780 804 815 844 876 867 863 856 855 857 847 940 1009 1101 1137 1278 1244 1166 1071 1023 1084 1128 1064 1231 1112 1051 1115 1093 1124 1068 1096 1105 1107 1114 1176 1192 1241 1253 1416 1561 1477 1371 1276 1319 1390 1470 1564 1611 1506 1538 1662 1801 1824 1713 1692 1653 1641 1693 1855 1958 2033 2189 2271 2270 2111 2036 2000 1962
 413 427 425 431 420 430 429 439 450 434 436 436 487 463 476 473 472 465 474 496 482 506 544 545 547 546 547 552 554 557 562 563 574 598 581 546 530 538 554 571 620 625 664 652 666 675 648 676 606 631 643 620 617 632 640 654 663 712 722 738 740 743 709 673 687 695 689 701 735 739 767 793 808 803 817 835 839 815 859 946 970 1028 1045 1157 1193 1075 1018 941 1031 999 1058 1171 1073 1062 1068 1069 1055 1049 1127 1057 1084 1173 1174 1230 1268 1286 1428 1584 1455 1343 1243 1386 1528 1592 1608 1556 1442 1606 1625 1665 1717 1691 1618 1588 1688 1751 1821 1901 2097 2236 2263 2206 2089 2095 2088 2072
 435 423 434 440 433 429 432 454 492 445 447 447 449 448 450 456 468 476 480 506 482 528 548 549 551 552 549 552 558 563 568 572 580 607 620 564 537 539 538 544 618 640 643 626 610 646 676 648 641 657 655 647 627 636 648 664 712 759 789 795 797 764 730 688 704 782 728 713 700 715 725 743 753 780 776 796 783 784 832 858 850 880 881 1003 1092 1010 923 926 910 910 954 1028 1070 1046 1068 1042 1017 1029 1042 1097 1136 1225 1180 1191 1322 1321 1408 1560 1468 1309 1281 1389 1539 1498 1466 1461 1420 1540 1468 1555 1642 1562 1533 1650 1790 1870 1976 2053 2065 2050 2095 2236 2214 2151 2154 2054
 429 427 431 435 442 440 437 434 452 475 460 445 451 472 469 457 468 477 512 510 491 499 518 546 555 553 553 558 562 568 573 577 582 601 614 593 542 549 562 560 556 572 575 587 628 663 684 672 675 674 689 689 643 655 669 667 724 787 845 846 840 809 749 710 702 747 731 757 767 752 746 757 738 744 753 765 790 807 839 876 895 812 839 1017 993 907 921 1074 1032 1022 957 924 969 1038 1040 1001 1055 1075 1125 1133 1140 1104 1114 1209 1195 1227 1366 1432 1399 1286 1291 1432 1477 1394 1325 1337 1346 1398 1442 1444 1484 1570 1631 1706 1751 1848 2004 1945 1877 1970 2004 2130 2262 2246 2180 2073
 430 428 433 442 445 449 446 444 440 453 478 458 445 452 468 473 471 509 509 518 504 496 509 515 557 561 558 562 566 573 577 582 584 589 599 616 558 554 566 587 567 580 614 618 630 621 665 710 700 695 698 658 659 684 695 709 708 795 862 908 893 835 781 730 726 743 760 752 811 794 798 801 793 818 772 833 835 879 934 950 999 851 844 899 878 953 1046 1055 1161 1091 995 1040 956 985 968 968 980 994 1019 1038 1039 1100 1165 1125 1204 1200 1246 1388 1332 1207 1289 1410 1391 1295 1316 1458 1504 1427 1561 1517 1577 1698 1786 1789 1860 1862 1844 1782 1841 1911 2030 2143 2287 2320 2204 2176
 435 429 435 437 445 448 449 450 446 463 502 469 453 452 453 475 481 485 507 523 543 498 521 504 560 560 560 565 568 577 578 581 584 594 612 615 585 547 563 591 603 565 587 626 637 613 643 676 721 737 705 675 683 730 720 735 703 786 867 931 923 851 794 749 779 788 791 757 826 819 847 831 818 831 795 856 855 927 951 1005 1051 971 892 859 911 1042 1130 1071 1175 1070 1012 1076 993 956 962 987 1039 1004 1011 1014 1031 1039 1081 1120 1132 1225 1190 1280 1288 1210 1345 1314 1278 1283 1392 1562 1577 1445 1563 1501 1541 1620 1719 1702 1733 1765 1736 1827 1940 1903 2051 2184 2273 2327 2252 2245
 447 442 443 448 465 463 470 470 460 473 480 484 462 463 455 459 478 486 506 516 554 521 509 515 518 563 566 570 575 578 582 585 591 593 606 637 611 556 555 574 598 625 577 587 602 626 615 640 650 712 681 684 725 758 758 757 736 778 852 926 912 872 850 800 831 840 815 783 823 867 910 874 873 826 842 861 906 942 1003 1117 1176 1047 977 964 1048 1160 1142 1089 1161 1072 1049 1124 1082 1032 989 1035 1032 1046 1145 1141 1122 1072 1056 1069 1087 1144 1168 1121 1174 1238 1331 1228 1370 1416 1459 1698 1641 1497 1603 1626 1656 1646 1599 1658 1735 1712 1806 1889 2032 2058 2111 2153 2289 2375 2333 2332
 444 450 464 460 461 454 457 458 456 459 464 482 484 469 464 466 487 496 501 520 551 528 514 562 552 527 565 573 577 581 585 588 593 599 611 644 618 596 559 554 585 600 643 625 643 685 659 658 679 647 681 717 757 808 799 788 790 861 880 925 959 953 888 839 870 895 879 824 801 855 920 918 903 852 884 910 913 1019 1038 1179 1249 1096 1048 1142 1231 1297 1214 1201 1170 1153 1128 1222 1110 1027 1000 1041 1135 1080 1042 1073 1110 1155 1157 1169 1095 1089 1113 1241 1147 1212 1274 1234 1371 1541 1636 1723 1647 1503 1602 1676 1788 1799 1718 1749 1834 1811 1772 1889 1996 2174 2235 2305 2358 2420 2418 2253
 441 448 451 449 456 449 451 454 461 470 463 466 469 486 487 496 486 519 510 526 555 560 523 541 568 554 564 575 583 586 589 590 597 601 610 643 675 609 570 562 572 588 602 630 650 664 693 652 629 658 721 750 784 847 862 819 830 869 920 953 988 969 906 906 937 956 930 861 838 838 893 946 915 880 893 936 969 1054 1117 1245 1258 1157 1226 1278 1377 1401 1313 1214 1256 1262 1206 1160 1070 1019 1037 1054 1098 1147 1126 1128 1130 1145 1167 1286 1252 1161 1184 1312 1289 1243 1217 1290 1426 1529 1654 1662 1547 1584 1594 1604 1749 1881 1884 1895 1880 1886 1886 1903 1941 2081 2226 2410 2447 2487 2403 2213
 433 438 442 442 448 449 459 467 469 476 478 476 474 476 487 502 523 497 549 548 553 584 563 523 549 573 558 554 580 588 590 594 604 611 618 619 631 647 580 569 574 581 594 633 646 627 653 617 639 678 713 770 810 865 882 863 851 876 922 980 1031 989 970 984 981 1007 960 919 884 827 856 897 923 926 928 963 1035 1082 1185 1334 1383 1324 1347 1412 1427 1361 1268 1333 1350 1412 1270 1139 1054 1036 1000 1128 1156 1208 1177 1176 1153 1216 1282 1306 1220 1184 1118 1257 1364 1391 1338 1393 1436 1553 1674 1602 1679 1651 1746 1762 1716 1820 1887 1985 1975 1963 1965 2009 1949 2089 2191 2405 2412 2360 2321 2238
 432 429 450 459 459 456 454 450 465 473 478 481 488 484 490 496 505 523 532 546 580 589 575 544 555 579 582 547 585 583 596 601 605 614 622 624 623 627 617 575 593 625 588 593 595 601 615 625 645 679 731 781 840 889 902 887 890 889 920 1014 1048 1034 1043 1079 1078 1055 1022 963 939 892 851 860 897 916 949 1006 1083 1143 1205 1319 1445 1489 1471 1462 1372 1370 1378 1454 1473 1373 1211 1117 1038 1027 1043 1098 1135 1183 1162 1220 1193 1310 1437 1369 1303 1242 1137 1188 1267 1326 1388 1444 1443 1463 1535 1675 1677 1795 1817 1852 1771 1821 1871 1993 2078 2068 2083 2106 2061 2096 2233 2364 2267 2207 2190 2118
 433 448 465 467 474 460 460 460 457 461 471 483 485 495 498 496 501 538 553 567 539 551 583 569 586 559 589 567 575 599 600 605 611 614 617 621 629 630 634 587 590 632 648 630 604 618 643 659 678 692 736 804 849 901 913 922 917 919 953 1059 1108 1114 1113 1092 1099 1129 1059 1009 973 937 887 904 891 899 922 989 1080 1171 1240 1384 1475 1553 1443 1361 1362 1426 1488 1460 1425 1326 1147 1124 1113 1033 1070 1104 1118 1187 1260 1288 1307 1335 1461 1450 1429 1347 1272 1162 1193 1235 1260 1300 1418 1546 1611 1717 1703 1727 1752 1871 1914 1905 1981 2073 2178 2177 2169 2238 2139 2082 2186 2345 2258 2191 2122 2095
 441 446 448 450 461 463 467 467 456 459 460 480 473 491 491 498 506 524 511 526 530 560 580 589 588 564 591 594 599 594 606 613 613 618 620 622 629 636 636 637 589 617 649 675 620 624 641 651 679 700 729 772 831 857 876 892 933 966 1026 1068 1157 1105 1088 1093 1105 1142 1124 1044 1025 974 921 946 961 947 950 999 1046 1123 1256 1373 1345 1451 1478 1367 1342 1487 1387 1321 1252 1289 1167 1085 1059 1062 1064 1144 1166 1217 1268 1401 1426 1339 1441 1510 1516 1394 1315 1209 1235 1376 1372 1329 1422 1522 1556 1705 1870 1770 1792 1831 1898 2002 2073 2159 2310 2302 2292 2298 2251 2185 2203 2426 2395 2310 2275 2209
 435 446 454 457 456 470 466 467 456 457 463 464 467 478 479 487 516 518 522 551 543 565 567 583 589 570 591 602 600 606 603 613 615 619 624 626 632 638 641 642 628 596 623 682 674 636 637 650 667 693 707 745 787 821 867 890 938 1018 1029 1137 1106 1063 1059 1076 1089 1150 1159 1103 1060 996 953 976 996 981 979 967 1031 1104 1220 1283 1270 1380 1373 1325 1390 1501 1347 1216 1178 1185 1139 1086 1089 1070 1095 1132 1200 1199 1284 1333 1465 1397 1422 1481 1494 1391 1305 1207 1229 1371 1432 1369 1445 1610 1620 1743 1888 1785 1861 1861 1874 1977 2052 2198 2344 2396 2389 2353 2338 2269 2306 2431 2331 2264 2185 2163
 441 448 460 465 470 478 473 470 475 475 470 469 464 495 499 508 502 498 515 530 556 580 600 582 590 578 589 609 609 608 611 611 617 622 626 631 635 638 645 649 654 637 605 634 669 683 670 666 681 748 750 770 810 851 889 913 972 1041 1118 1083 1041 1035 1040 1060 1092 1170 1239 1161 1106 1037 1016 1045 1052 1026 1026 990 1090 1125 1197 1182 1204 1236 1274 1292 1389 1422 1305 1197 1148 1112 1093 1116 1091 1084 1132 1122 1142 1191 1220 1338 1430 1515 1449 1533 1450 1353 1221 1212 1283 1318 1481 1519 1585 1615 1696 1827 1855 1872 1928 1921 1946 1969 2019 2153 2315 2420 2510 2439 2466 2393 2415 2339 2320 2254 2205 2141
 437 450 464 474 473 476 476 472 475 477 480 485 483 471 476 477 508 514 532 561 581 563 586 591 572 591 615 604 610 613 610 613 621 626 630 634 638 643 648 654 660 665 627 611 608 623 649 642 706 748 775 796 835 901 908 941 995 1090 1061 1012 986 1004 1022 1069 1127 1184 1187 1200 1137 1088 1056 1098 1096 1064 1026 1028 1097 1210 1345 1282 1332 1359 1313 1334 1394 1501 1374 1300 1148 1182 1126 1091 1079 1113 1089 1133 1212 1208 1250 1298 1411 1512 1526 1570 1451 1353 1241 1286 1364 1371 1451 1647 1725 1706 1779 1879 1920 1904 1953 1997 2097 2069 2160 2246 2330 2447 2581 2505 2574 2482 2413 2288 2230 2172 2125 2104
 453 454 461 457 463 465 481 477 474 480 485 487 491 492 480 482 522 529 556 541 575 563 558 553 566 604 633 615 612 612 617 621 623 626 631 640 645 649 655 658 664 671 675 664 673 617 641 660 705 751 796 819 859 902 950 977 1060 1037 977 951 977 980 1018 1051 1130 1125 1184 1217 1196 1139 1120 1154 1145 1107 1063 1062 1125 1204 1361 1404 1436 1365 1394 1366 1379 1455 1313 1216 1191 1140 1123 1113 1113 1117 1139 1144 1148 1164 1257 1319 1445 1521 1643 1601 1475 1421 1340 1269 1379 1445 1557 1713 1864 1855 1821 1743 1903 1961 1972 2022 2106 2235 2217 2304 2430 2445 2575 2615 2543 2493 2430 2357 2223 2245 2188 2145
 462 448 462 469 474 474 472 485 484 484 484 489 495 496 478 480 503 528 519 565 578 536 562 608 609 596 604 624 617 617 619 623 628 632 639 643 650 653 660 663 668 671 679 687 697 629 660 684 706 719 753 810 859 905 945 974 1033 954 930 926 950 995 1032 1028 1071 1101 1160 1225 1226 1177 1189 1193 1199 1161 1095 1113 1202 1221 1305 1347 1420 1372 1430 1376 1439 1481 1361 1264 1189 1178 1124 1148 1128 1152 1178 1172 1251 1297 1334 1360 1439 1478 1603 1666 1537 1493 1374 1278 1389 1468 1558 1786 1766 1742 1667 1671 1833 2012 2079 2126 2163 2291 2367 2429 2543 2573 2605 2665 2537 2384 2337 2388 2350 2315 2184 2124
 460 461 457 468 483 488 497 488 490 496 492 494 498 500 497 481 491 510 519 537 532 548 589 600 618 586 596 619 633 621 626 628 633 636 641 647 654 658 665 667 673 677 683 688 730 683 642 653 711 772 796 830 864 890 939 1005 963 912 915 937 980 1020 1075 1047 1101 1105 1157 1204 1248 1240 1239 1237 1232 1185 1173 1178 1247 1341 1295 1309 1339 1463 1511 1444 1448 1500 1467 1285 1213 1154 1165 1184 1151 1176 1279 1299 1401 1422 1376 1436 1479 1557 1689 1698 1494 1420 1320 1303 1321 1481 1601 1678 1628 1569 1587 1699 1830 1949 2108 2239 2286 2367 2410 2468 2463 2608 2677 2644 2594 2459 2330 2279 2246 2189 2147 2085
 463 472 480 467 474 474 483 488 497 498 505 501 503 513 520 492 484 501 514 523 536 554 582 567 573 566 608 611 638 632 634 653 637 641 647 650 658 663 670 671 678 682 688 694 739 740 696 665 741 776 795 805 842 883 970 960 900 869 885 942 980 1028 1089 1132 1121 1117 1148 1184 1235 1246 1230 1203 1218 1240 1228 1205 1313 1414 1360 1325 1373 1495 1535 1480 1514 1527 1405 1300 1217 1206 1201 1247 1164 1193 1201 1340 1403 1474 1460 1501 1470 1510 1643 1620 1512 1467 1363 1375 1330 1377 1507 1583 1516 1519 1610 1732 1804 1976 2128 2191 2291 2222 2287 2297 2342 2517 2614 2561 2442 2367 2317 2232 2178 2190 2178 2076
 453 457 474 487 480 481 468 476 493 496 517 517 525 531 536 550 492 495 496 502 531 542 545 547 586 607 583 622 650 645 640 653 653 644 649 655 660 665 672 676 680 684 693 718 726 738 741 724 718 740 759 814 851 875 969 904 833 846 952 952 1003 1058 1106 1149 1155 1203 1152 1160 1205 1200 1185 1191 1212 1248 1269 1261 1344 1472 1402 1399 1438 1534 1602 1551 1537 1453 1344 1238 1269 1208 1192 1299 1253 1239 1233 1288 1351 1418 1562 1537 1524 1544 1639 1581 1495 1445 1350 1401 1458 1375 1433 1464 1504 1563 1586 1706 1893 1979 2055 2066 2137 2156 2223 2255 2372 2463 2533 2438 2354 2362 2369 2270 2285 2267 2167 2107
 458 449 473 471 474 470 471 483 496 510 515 522 538 543 548 562 501 496 497 512 526 535 542 544 556 563 576 589 616 617 632 631 648 652 652 659 662 668 672 677 681 686 702 725 730 738 746 743 753 754 779 800 829 873 945 875 822 853 949 963 1018 1064 1115 1179 1158 1215 1200 1151 1179 1183 1168 1189 1206 1255 1288 1299 1362 1494 1460 1524 1491 1504 1612 1566 1501 1527 1408 1311 1226 1215 1247 1269 1312 1260 1281 1309 1334 1473 1563 1571 1580 1612 1638 1524 1460 1414 1353 1457 1554 1409 1410 1452 1572 1653 1566 1660 1813 1962 1954 2035 2087 2150 2139 2311 2364 2328 2481 2504 2458 2479 2452 2350 2307 2221 2138 2140
 473 459 464 459 460 461 473 488 488 510 525 538 547 556 561 583 541 521 519 521 509 529 543 547 550 555 565 580 590 610 618 609 627 630 629 645 664 667 673 676 684 672 683 717 734 715 746 750 745 756 751 757 801 871 899 829 797 837 907 972 1032 1085 1130 1167 1162 1181 1208 1171 1161 1156 1178 1209 1228 1272 1293 1327 1412 1506 1539 1615 1591 1618 1630 1617 1519 1458 1399 1375 1256 1248 1337 1299 1318 1316 1323 1344 1373 1493 1586 1612 1627 1690 1599 1522 1432 1376 1428 1533 1617 1453 1480 1430 1557 1705 1749 1710 1745 1817 1893 1963 2026 2071 2115 2188 2213 2338 2481 2603 2609 2564 2467 2308 2273 2226 2135 2158
 486 485 462 468 458 468 473 473 485 505 521 529 511 531 521 553 593 562 539 532 511 503 530 541 550 557 563 572 581 589 589 590 596 600 605 612 629 665 669 664 632 656 678 684 698 685 734 733 732 734 729 737 790 836 873 791 772 891 923 979 1036 1080 1117 1165 1171 1141 1215 1182 1207 1161 1164 1187 1204 1235 1273 1302 1375 1423 1506 1642 1529 1522 1519 1524 1462 1426 1366 1336 1329 1352 1307 1346 1355 1355 1388 1478 1444 1485 1597 1632 1662 1696 1568 1450 1413 1407 1521 1651 1615 1479 1606 1528 1510 1664 1773 1880 1872 1887 1879 1958 2100 2119 2137 2140 2288 2381 2532 2641 2512 2431 2434 2338 2243 2164 2211 2203
 493 493 497 479 471 461 490 497 518 506 511 496 545 550 540 530 558 608 592 613 556 520 513 529 551 556 562 566 572 580 578 586 592 593 591 576 595 607 587 590 596 590 609 607 615 636 629 648 666 676 701 704 752 777 787 747 776 871 925 966 1025 1067 1082 1130 1137 1128 1161 1164 1225 1203 1190 1198 1220 1255 1232 1276 1287 1387 1482 1533 1463 1364 1369 1429 1375 1341 1304 1353 1389 1403 1414 1415 1360 1424 1403 1538 1508 1574 1607 1705 1747 1689 1598 1507 1414 1484 1589 1710 1603 1569 1688 1592 1482 1624 1714 1803 1872 1885 2031 2103 2203 2235 2249 2271 2327 2406 2521 2568 2462 2345 2295 2298 2253 2190 2213 2187
 493 502 502 490 496 478 465 475 512 492 489 502 531 536 563 542 590 573 597 574 565 544 542 520 532 531 529 536 568 573 576 583 586 560 565 597 591 608 611 610 608 609 618 631 640 657 669 678 663 648 657 666 690 788 742 713 749 802 883 956 983 1010 1064 1086 1098 1137 1130 1153 1203 1229 1208 1201 1203 1237 1191 1232 1288 1377 1475 1407 1357 1306 1329 1294 1284 1304 1321 1301 1317 1392 1366 1457 1470 1472 1511 1534 1630 1651 1709 1789 1850 1738 1638 1485 1440 1423 1521 1659 1726 1709 1750 1597 1509 1515 1612 1629 1673 1689 1801 1972 2064 2176 2090 2195 2284 2445 2545 2439 2347 2280 2269 2256 2199 2251 2195 2280
 499 499 503 485 504 503 482 469 469 470 494 505 521 528 522 550 538 524 525 533 548 560 556 533 527 523 527 546 540 550 547 562 553 554 563 611 616 621 630 636 641 622 611 615 676 719 731 727 715 698 706 684 716 691 712 703 741 769 838 911 908 968 1018 1078 1082 1117 1119 1125 1204 1215 1207 1162 1170 1176 1144 1174 1245 1390 1326 1269 1254 1245 1219 1265 1267 1286 1300 1337 1362 1391 1397 1424 1466 1552 1588 1564 1664 1730 1756 1890 1825 1724 1592 1470 1466 1442 1531 1553 1661 1816 1766 1617 1607 1577 1578 1669 1680 1808 1712 1807 1866 1932 2022 2051 2222 2353 2453 2357 2380 2391 2397 2318 2235 2319 2216 2286
 496 482 498 499 510 510 487 493 470 480 509 527 551 497 524 533 503 521 535 535 556 573 560 549 533 527 534 543 538 548 544 554 591 588 573 583 590 603 592 606 600 603 628 615 640 680 676 707 732 734 769 747 745 686 698 702 712 756 797 856 926 982 984 1043 1044 1086 1106 1106 1162 1175 1149 1129 1146 1116 1107 1150 1210 1310 1249 1191 1179 1236 1256 1352 1405 1321 1295 1360 1411 1397 1457 1427 1469 1510 1649 1653 1750 1748 1869 1935 1827 1714 1605 1551 1507 1462 1559 1597 1671 1824 1671 1627 1610 1698 1642 1748 1841 1911 1755 1894 1915 1935 1947 2037 2199 2408 2421 2533 2525 2390 2337 2273 2257 2338 2241 2267
 480 503 503 509 514 509 499 480 480 490 482 478 484 500 515 497 537 518 522 548 556 565 573 563 543 559 549 567 542 551 561 585 608 612 627 597 600 587 619 603 608 624 656 620 631 655 704 732 753 792 798 787 748 691 704 723 733 719 754 809 858 918 974 1029 1014 1055 1079 1081 1106 1148 1102 1094 1121 1069 1082 1136 1218 1195 1162 1267 1318 1307 1322 1452 1414 1331 1326 1352 1394 1454 1461 1453 1494 1608 1709 1766 1811 1860 1939 1863 1780 1700 1624 1660 1522 1511 1572 1657 1709 1846 1782 1754 1722 1797 1829 1768 1921 2004 1888 1867 2018 2111 2152 2233 2373 2532 2561 2563 2469 2402 2334 2308 2302 2277 2319 2294
 473 473 482 494 517 521 517 486 481 478 529 517 489 493 495 525 502 514 518 529 548 556 590 600 554 567 592 605 617 556 553 569 580 597 603 650 639 611 677 659 644 630 660 626 657 677 732 757 786 838 807 812 769 712 708 719 745 776 733 773 817 885 957 1055 1020 1016 991 1039 1085 1102 1045 1061 1073 1040 1068 1145 1095 1178 1253 1383 1432 1424 1454 1470 1453 1436 1408 1379 1379 1384 1440 1470 1526 1626 1768 1878 1895 1950 1937 1841 1771 1694 1692 1659 1568 1544 1528 1588 1701 1728 1824 1924 1904 1921 1914 1839 1884 2040 2078 2076 2060 2129 2187 2303 2444 2539 2655 2606 2558 2438 2380 2306 2402 2351 2290 2381
 494 501 492 510 505 520 521 509 512 485 482 526 523 518 505 509 523 522 547 537 561 577 582 585 560 568 594 617 614 600 573 561 594 624 631 641 671 607 646 671 670 658 632 657 673 698 742 763 801 859 821 849 768 711 720 743 750 761 755 747 778 840 909 1010 963 946 950 993 1056 1061 1017 1056 1029 1013 1055 1127 1111 1250 1353 1428 1430 1486 1492 1511 1509 1435 1447 1415 1408 1399 1413 1471 1546 1671 1734 1864 1948 1994 1903 1823 1773 1674 1739 1672 1590 1554 1556 1586 1635 1656 1790 1890 1859 1933 1985 1955 1955 2080 2220 2184 2110 2215 2194 2277 2437 2561 2650 2563 2524 2451 2428 2335 2399 2310 2327 2379
 469 503 504 508 501 509 521 516 505 511 488 499 531 549 561 543 553 539 544 570 564 574 551 580 581 568 595 616 627 643 634 566 602 642 674 687 708 634 637 665 701 689 639 669 698 717 742 765 821 873 877 874 764 707 732 754 798 834 818 799 788 785 834 880 883 899 909 945 1021 1000 985 1024 979 1016 1052 1077 1108 1211 1276 1369 1453 1436 1435 1467 1519 1526 1547 1467 1422 1442 1499 1533 1620 1657 1824 1921 1965 2024 1931 1807 1725 1764 1813 1689 1628 1605 1628 1560 1577 1637 1789 1768 1758 1885 1954 2093 2097 2150 2251 2264 2204 2207 2272 2416 2510 2603 2685 2629 2591 2443 2390 2419 2347 2362 2349 2399
 500 475 498 494 517 515 527 526 501 513 497 494 507 533 522 529 516 548 562 553 546 541 545 567 583 593 591 604 635 656 656 628 586 599 620 670 715 647 634 660 704 672 644 679 714 728 741 765 820 880 968 837 764 719 739 774 826 840 886 863 842 826 809 881 931 905 909 907 995 963 953 961 976 985 995 1009 1118 1242 1430 1401 1356 1332 1444 1547 1636 1644 1527 1495 1444 1447 1471 1539 1669 1774 1800 1930 2039 2058 1955 1805 1817 1852 1727 1622 1700 1692 1712 1611 1669 1615 1650 1686 1738 1825 1919 2064 2204 2296 2361 2397 2367 2255 2381 2366 2501 2619 2727 2620 2495 2498 2486 2431 2366 2370 2396 2465
 507 498 506 516 527 520 535 524 518 519 549 508 494 496 503 517 540 532 550 533 528 553 549 537 548 575 598 617 603 640 657 640 614 598 607 622 678 719 639 667 707 656 654 697 732 733 755 773 832 899 968 833 775 738 733 768 846 896 937 966 937 900 857 861 939 1000 985 915 926 938 954 988 975 984 1017 1051 1066 1192 1348 1282 1343 1451 1499 1579 1590 1611 1548 1481 1483 1517 1502 1565 1615 1766 1934 2007 2003 2031 2022 1951 1933 1829 1708 1735 1759 1831 1784 1699 1728 1633 1643 1791 1786 1853 1852 2018 2162 2116 2242 2324 2477 2438 2436 2464 2620 2675 2670 2655 2575 2575 2558 2428 2410 2451 2409 2451
 497 507 514 532 537 537 559 566 567 551 543 525 518 539 517 503 516 526 527 521 548 567 569 593 574 561 565 569 586 615 649 670 667 679 609 642 661 733 677 654 689 663 662 703 737 754 772 793 844 916 963 834 786 813 734 777 845 913 961 1027 1056 975 908 882 906 976 1068 994 978 1056 1024 1015 1026 1004 1052 1122 1165 1209 1210 1286 1350 1400 1482 1551 1554 1590 1529 1504 1513 1536 1590 1573 1665 1817 1916 1967 1953 1956 1994 2009 1942 1773 1809 1707 1811 1899 1867 1839 1803 1755 1671 1807 1923 1965 2008 2045 2022 2123 2221 2358 2469 2509 2533 2641 2676 2729 2757 2686 2645 2563 2457 2474 2485 2501 2444 2525
 511 518 517 517 518 524 528 545 553 556 577 558 552 576 530 526 523 518 521 529 545 579 592 583 588 609 592 608 601 584 613 620 633 678 635 609 668 682 705 653 681 663 676 703 738 782 791 824 867 935 963 843 835 818 754 775 840 899 950 1000 1038 1079 971 934 917 968 1037 1035 987 1066 1082 1065 1082 1047 1063 1118 1213 1319 1297 1286 1305 1448 1495 1450 1435 1462 1583 1542 1533 1550 1570 1674 1726 1809 1920 1928 1918 1945 2030 2002 1896 1844 1799 1751 1818 1909 1953 1985 1815 1737 1735 1721 1848 2000 1952 1913 2023 2161 2305 2323 2371 2407 2482 2576 2529 2577 2684 2702 2531 2528 2580 2574 2572 2466 2515 2527
 490 502 505 507 507 501 518 517 529 549 561 592 607 608 596 609 532 530 524 542 527 547 551 558 600 620 622 648 658 603 596 656 697 705 701 665 617 639 697 656 699 665 674 699 730 790 825 867 892 946 953 860 912 883 789 771 828 881 951 999 1048 1098 1066 989 979 962 1019 1078 1009 1059 1181 1128 1115 1125 1094 1126 1199 1294 1447 1369 1313 1343 1379 1387 1481 1551 1588 1581 1548 1532 1492 1520 1631 1798 1877 1880 1929 1976 2000 2025 1907 1834 1777 1771 1923 1935 2018 1984 1874 1795 1871 1719 1798 1845 1847 2027 2153 2197 2284 2183 2261 2333 2386 2426 2492 2589 2546 2482 2393 2463 2495 2483 2556 2497 2498 2533
 504 511 498 498 503 504 507 508 508 516 547 560 578 585 574 589 577 545 537 540 546 545 543 575 560 560 589 604 644 666 655 612 622 656 677 709 665 652 679 671 697 674 673 694 735 774 813 863 902 971 954 901 981 926 844 771 840 909 977 1047 1133 1080 1126 1087 1027 977 1018 1116 1047 1068 1179 1204 1159 1191 1149 1155 1212 1280 1336 1466 1408 1354 1409 1490 1541 1598 1509 1515 1464 1433 1469 1478 1566 1765 1821 1853 1920 1968 2014 2000 1878 1836 1875 1851 1834 1914 2037 2006 1900 1832 1920 1835 1805 1836 1842 1926 2094 2108 2112 2139 2286 2310 2378 2477 2517 2463 2365 2288 2309 2357 2412 2505 2533 2580 2581 2534
 518 547 543 527 522 522 525 524 530 514 525 555 555 561 556 592 579 548 540 544 548 556 565 554 587 589 574 638 667 702 704 654 609 622 631 665 667 648 699 697 691 686 677 694 724 755 810 863 909 977 948 938 980 916 855 785 825 898 982 1057 1109 1083 1131 1134 1042 1010 1046 1140 1071 1094 1146 1245 1203 1214 1183 1189 1283 1297 1362 1470 1406 1381 1482 1525 1584 1582 1518 1463 1436 1395 1441 1457 1511 1731 1784 1774 1893 1921 1989 2048 1900 1871 1938 1930 1952 1948 2073 2024 1987 1862 1914 1967 1874 1893 1934 1872 2045 2005 2137 2204 2294 2387 2408 2489 2420 2347 2253 2264 2369 2461 2530 2572 2612 2637 2581 2535
 521 512 547 585 591 590 593 574 574 564 520 522 530 572 566 596 589 547 543 556 559 565 575 587 582 616 635 594 635 664 685 707 655 658 679 651 694 652 681 707 719 699 686 697 716 756 804 837 899 973 1000 992 991 907 849 796 831 897 974 1032 1066 1112 1104 1154 1091 1041 1079 1158 1108 1119 1176 1245 1263 1261 1237 1218 1325 1392 1480 1583 1543 1517 1595 1583 1635 1572 1509 1423 1361 1383 1396 1446 1521 1612 1627 1708 1852 1949 1956 1898 1946 1930 2022 2026 2012 2052 2108 2128 2007 1974 2013 2048 1971 2002 2007 1968 1954 2037 2228 2231 2232 2332 2431 2463 2316 2218 2247 2375 2499 2507 2452 2421 2467 2499 2548 2619
 509 548 550 542 565 550 583 592 598 605 584 533 529 544 560 621 571 567 563 574 588 586 602 603 621 646 661 655 648 658 671 758 727 739 692 697 698 682 691 713 736 712 692 707 745 777 833 852 924 1017 967 990 926 851 822 814 817 893 957 1023 1064 1105 1105 1146 1153 1078 1101 1177 1146 1149 1208 1295 1286 1259 1281 1265 1376 1457 1478 1604 1672 1648 1574 1529 1525 1603 1513 1400 1357 1445 1461 1526 1508 1589 1669 1776 1879 1916 1829 1885 1897 2032 2133 2145 2108 2134 2215 2159 2084 2098 2041 2219 2119 2119 2061 2130 2110 2217 2346 2356 2286 2343 2371 2469 2387 2247 2164 2284 2374 2334 2286 2358 2306 2452 2440 2584
 528 501 509 511 517 537 570 571 595 601 601 577 545 537 535 551 545 557 563 562 570 599 604 584 609 630 637 649 680 694 694 694 661 738 724 728 731 717 735 720 739 716 699 708 748 830 899 885 936 1000 957 1015 935 838 797 803 835 882 959 1004 1043 1104 1160 1152 1166 1161 1124 1212 1202 1183 1247 1239 1217 1195 1201 1290 1403 1406 1435 1570 1597 1526 1523 1462 1489 1507 1453 1321 1355 1370 1370 1431 1539 1611 1771 1845 1894 1830 1799 1742 1872 2033 2153 2159 2119 2116 2112 2127 2195 2172 2104 2245 2227 2247 2176 2277 2302 2306 2351 2396 2390 2438 2469 2451 2278 2173 2146 2296 2209 2152 2173 2233 2280 2302 2388 2656
 537 548 581 574 578 570 555 579 593 595 599 605 605 611 593 540 541 562 589 588 577 571 582 598 600 606 631 622 611 631 630 638 632 644 655 662 668 688 692 723 727 718 714 730 789 844 903 872 928 947 941 1014 905 855 827 813 806 873 912 963 1017 1060 1157 1181 1249 1204 1155 1219 1257 1223 1234 1166 1158 1119 1178 1262 1335 1333 1395 1536 1545 1393 1461 1371 1466 1406 1345 1297 1325 1306 1434 1515 1626 1745 1743 1692 1800 1798 1692 1814 1932 2053 2066 2013 1933 1965 2028 1957 2058 2191 2303 2329 2362 2329 2293 2358 2370 2338 2289 2229 2265 2367 2470 2476 2345 2169 2083 2201 2093 2177 2183 2259 2341 2397 2413 2556
 547 576 560 543 564 572 578 583 586 591 600 605 610 614 619 599 572 561 559 568 602 612 622 642 661 644 641 618 662 675 696 699 680 733 705 711 741 761 748 739 691 686 729 769 783 817 839 848 884 890 952 1012 885 862 839 830 867 822 881 925 983 1053 1132 1185 1194 1244 1168 1185 1243 1167 1143 1095 1097 1080 1161 1243 1258 1275 1347 1488 1507 1354 1343 1346 1393 1328 1258 1250 1270 1268 1392 1418 1562 1671 1601 1605 1759 1682 1659 1796 1979 2073 1912 1843 1817 1890 1911 1874 1985 2192 2342 2424 2457 2429 2396 2430 2421 2242 2127 2213 2326 2365 2347 2319 2272 2156 2013 2055 2150 2323 2343 2320 2377 2547 2531 2510
 529 531 531 530 530 537 542 548 557 551 574 586 598 612 621 660 603 582 608 605 584 595 580 592 603 639 676 692 657 668 665 690 696 722 759 786 757 711 728 701 670 679 743 779 857 931 857 863 878 874 920 951 938 898 849 845 875 844 872 941 986 1034 1083 1131 1164 1173 1129 1143 1213 1127 1057 1047 1034 1044 1101 1200 1163 1254 1372 1447 1361 1254 1214 1229 1253 1246 1237 1305 1351 1379 1352 1345 1466 1551 1545 1677 1710 1612 1741 1823 1953 2011 1884 1734 1745 1800 1807 1846 1939 2061 2281 2475 2495 2490 2434 2348 2334 2197 2052 2245 2255 2175 2232 2223 2145 2024 1992 2102 2212 2399 2438 2477 2468 2562 2668 2686
